-34.8649861668583	61.84329602970767	-96.98469108147475	
35.700355287855174	4.991960015445904	51.248606855391294	
-28.58100776380917	-75.8828679813296	153.8527316429729	
-39.926093734382135	4.786441886858169	-32.41941275219015	
26.9366267487746	-0.26336227338113305	47.99255272668171	
-51.28097435552188	-42.78866018326002	43.107447190262114	
-113.82958470766937	5.509416877303802	-81.41352089162903	
29.514626469014786	24.244368161984617	4.994953896405189	
-92.29334880584463	-5.73465318459577	-51.67865356295115	
-43.55308510798759	30.943155672355402	-66.99546415959247	
-40.14887314059747	-32.1406423435858	31.090107789818013	
20.5577978263415	-11.849186188343348	65.72941595750453	
-38.86207411423145	-1.1448475775383653	-23.429060287779144	
-91.68624414781668	-7.71642111917146	-48.138172538963765	
-39.84527102414121	5.293515657762382	-32.69508981702808	
42.32099541724494	14.891445377333742	42.231498791923066	
-74.18837633694436	-21.776617731229493	-15.220101179721542	
-33.9038479019292	-9.62202253050648	-7.4569600877381035	
16.167149620233648	0.37762897640596355	28.05648838102853	
-22.849144769194705	58.33498620093324	-82.81388859645342	
-9.565738531127632	17.479294299784865	-26.861247885920022	
37.701725513165634	62.44236810057801	-33.63092930552679	
-11.360381523334505	-37.16440639237222	80.91843009802822	
-37.322588047129535	18.67871220202544	-47.527178070039795	
-2.2071599835843023	98.41281020409888	-110.42207443668073	
-77.16216259428927	-53.44702587518398	42.88922576912186	
39.79073925010829	58.99721830667309	-26.97717794895353	
-36.57307348349848	-1.4550480780826833	-21.134319020926867	
-38.49161351781674	-20.920632255784998	9.665744593949324	
-1.5594680124636549	27.158316641358613	-31.127794575702495	
-2.764468746384004	-31.446266459086928	79.82145785801299	
12.65703687761582	110.36208920258908	-110.22950746884096	
-23.485365214632626	59.17749793757524	-83.4094887927625	
64.35868547809504	20.632232897398055	70.359182280116	
-83.29662679331396	7.937665336710675	-62.77221223156534	
0.9098303592289786	26.006501925012127	-27.624028937728877	
58.66265869956558	49.82146320357789	9.261130066044826	
60.922905911006026	16.42740986687665	73.53910190141796	
61.730564084741026	14.195658062218081	80.00093091049015	
31.004918615867055	48.15830550374121	-23.12089833693092	
68.83272311540394	43.667490363647715	34.24661621571828	
12.741747893296958	-11.811535841997664	53.96125483930721	
32.63431415921963	-3.4430008489365393	68.60090908716727	
-3.635471249818942	27.397571420411168	-32.76302819869428	
10.295819772322647	-25.513696491026273	86.7326755483987	
4.036839676069564	30.79116408957568	-29.998976255000805	
1.8618245310524	-5.247012792940275	17.416637002370923	
-4.577464314460976	30.440264626942554	-36.719863703035195	
69.44700351395875	28.28564445327588	64.65289254831737	
-14.95881660772798	-27.550789517173506	52.21265168234719	
39.276867331911696	-14.286706825335877	109.3832496516299	
-36.635084288317586	-24.12026800017376	18.770191443456863	
34.17474499781072	54.774153187165574	-26.871799853898917	
-39.89425220228776	-45.80568702877267	67.19353813412027	
-9.29174990747381	-26.01192866485533	56.945686905617336	
62.6294085770049	26.3128123612402	57.327372649005845	
61.853715002553685	106.6535971494138	-57.09349269256849	
15.502646584420994	22.310643097459735	-9.105738586322325	
-17.844576204327904	5.369309740064601	-17.804472434776734	
54.996163539661474	38.27948492163147	22.930157118548884	
-60.585998966768905	-74.30537230074307	115.2630263363047	
-80.28898961886482	12.11928858106039	-64.90319792974933	
-33.014245415378454	-5.433294671397054	-12.345549492739005	
37.84088936975668	48.43530028400276	-14.755850427819293	
-43.805079768598084	2.065560728110417	-29.4025514564489	
-5.7553220634352975	43.92810427795321	-51.68367214240231	
-24.000373816255674	9.641283310950728	-26.798122413382387	
-116.20957763269541	-5.449971623716159	-62.94714047623585	
35.65973912868523	-15.410243563562759	107.61987443107625	
28.978545512301515	9.289063571833879	33.04678070537266	
18.246738959203526	-4.171754142841057	45.331363061358914	
0.9058869814490769	-16.389833811401935	47.414607686293884	
-54.28619108743096	100.72468391347812	-149.13162019367013	
4.725707944207331	-15.942112441775144	52.75114659653139	
-4.394016924577968	31.8710056604658	-37.52876890274683	
29.885054455798493	65.75404687645313	-43.090838021046316	
-76.3250677412249	-29.50997470575864	-0.5433481397315139	
-8.645229855027758	28.025219598350887	-36.632323267612335	
20.118586560449778	37.71536710396738	-21.5987549960776	
-31.9889110159594	20.61008659201631	-44.58525791319149	
55.49645504574008	10.27822288930573	80.99064845832049	
31.256181015929585	-31.52460650488559	144.6260110511543	
-107.76549135319699	-18.770601395911726	-37.81775328936376	
6.573500402392782	43.135346990357874	-40.175141879247995	
-29.709461514443316	22.2842596510501	-44.86410058103801	
43.005838435826796	35.98065027073574	9.373799118265474	
-68.77324844289154	-33.24992901573541	12.463814345981254	
41.870031792377645	8.973646935898314	58.91562492708504	
-34.774009083621465	-53.55351467771163	97.66493045395494	
50.964329389641435	37.3001536500618	19.63449317265019	
-88.23092605248738	-3.386298256406804	-47.5826413317272	
-16.929739366352177	-5.86391530918878	-1.097481886313854	
-1.7266754262587687	102.93288096508276	-109.61187843412868	
-19.770507891621442	5.425189477492123	-18.640162819525663	
-10.480362543176216	19.519653949501087	-28.47021844788813	
-61.79763922148907	14.477155919787814	-55.1814753784068	
-39.76617454134248	-1.6844291653686134	-21.091944999086213	
7.686321142574649	-21.007780536578693	74.22161326572967	
-41.793037382381215	-32.763137708684454	35.38965110663117	
-87.64752866904232	28.357033377452353	-87.51716146140554	
12.433783116689202	11.27138033045355	1.623456912285539	
-40.4482463569749	-3.6293444829406454	-18.68424508927529	
-50.27360867986206	0.17745227184629409	-29.671880179301677	
-79.81779864074191	15.857455661862968	-67.29269252521809	
27.962048323631638	-14.045782540507304	93.1146159532994	
0.4276410859364546	-10.994515602265118	32.65516809482258	
34.601576213904586	47.738118985147274	-16.26661886646616	
36.286957855811984	59.661887776426575	-28.177779965042117	
-37.07931076370348	44.70087727912357	-73.78041143465636	
16.034917295869743	24.73051076798512	-10.5602177693691	
-39.94942386269675	-41.50450031168277	60.40753743324058	
-24.316451992743016	7.706246260818596	-23.860361127475404	
42.84931784101385	12.570717915657827	54.26193663141511	
-20.544402716901512	23.995025326869737	-39.8340811118327	
-9.93559820934959	-24.95468397337593	56.56401131002416	
-25.2468957779854	-33.894129642555185	59.25150033773684	
-77.29964852657223	-33.40006562616521	8.170726505674073	
30.880128316223548	33.12209742807991	-2.4699239093656407	
11.445342512911164	-10.992358605212246	53.66247496608735	
10.080899008186952	53.03989852817608	-46.2227775599906	
-117.11338793107917	5.787142267895502	-74.7982775502231	
-42.243780871175304	-5.11241348689082	-17.019711469660372	
-27.378396224291834	-20.49052401928044	21.702356738090323	
-43.4831554413948	-5.1421677926247815	-17.66262856674028	
29.019924965521486	27.110991328080797	3.3734277736069718	
20.035747572411882	36.71188453079431	-19.249297002169897	
-53.94109898128488	-4.464537577362933	-24.513049337906082	
56.741857698580205	43.64292808861156	20.693918243534423	
55.11055510668735	79.94287297435433	-28.93307980685046	
10.286064167272793	52.06837066520527	-44.48518750006652	
30.794746480890616	45.88045907550237	-17.418742164111453	
-32.1171111768017	18.424501389354983	-40.472952980542274	
-41.87781920080126	42.83024398980871	-73.34394677509012	
-78.14065396129934	-22.596366442553	-10.102794063715967	
65.88600110978882	30.868073098323574	60.75130515550085	
-112.15648673137011	-20.22175281786282	-33.921310452124544	
55.91305174916253	45.05354084236675	17.9654594313247	
-24.76145006737025	-19.523843448989954	22.82315735233001	
-44.01593846024935	-41.810522735519406	59.02681158938357	
1.7191223513369345	-12.768226921754835	42.10656810664069	
50.2922291715721	27.366535961383615	39.29752229627079	
-45.80256008995675	29.35989526375784	-60.59283896154295	
45.36339956114359	5.177642363286603	80.84906513339415	
-22.870316840873766	25.97306294264254	-42.482797589786436	
32.714554041214896	45.441742372198256	-14.083142562132455	
69.65428383475987	31.92971920029062	67.0725906750457	
-23.848534844150326	24.666707026128083	-41.58018488187378	
36.51359945933404	9.039410944979052	53.24150744216924	
39.55503654818905	30.454545843653808	15.690907731878033	
6.7956302524428045	32.416864824855566	-26.687080939978856	
50.783957925825035	25.93264036113146	44.03555014789321	
19.854103310284287	-3.902517579321086	53.33595830023321	
-43.95383553345664	19.315327983976644	-47.54318703838713	
-65.22375240447522	-15.230616976373849	-13.161844864384772	
-77.12493033933796	-18.945892888700367	-14.015716262264375	
-4.701718184252094	78.09321611620413	-81.35270037075975	
-5.778460186193529	-28.18196850273417	78.21016873547786	
-36.96304645427042	-0.31049621705461966	-19.528955495668985	
-17.18474364274648	7.230062272292882	-18.13329997724868	
-36.42019249617729	19.84141994354827	-43.490635086944266	
6.101396076120224	-23.115098521634884	85.04283296346524	
-17.604148293910136	14.690254989603245	-26.560090676406507	
-21.765662548173527	21.094338876351685	-35.93960236739841	
59.47725562077006	26.734951218213457	60.4063987925332	
-66.74340160317392	-18.94215248975159	-7.501592287179926	
67.94561904642902	47.15917719309742	36.732075380024305	
-51.951387877323846	-5.2056194467540875	-20.567970238776724	
48.5000699156638	-2.138310047427781	111.5481443797392	
-18.292171189276665	-5.95549780123997	-0.6806089165997122	
-14.321383414698976	16.517473522518543	-26.300044325184185	
-5.437990371943731	-16.675367800538265	43.38308797392544	
-31.817858323755985	20.90145976012502	-41.6591223539694	
-72.49371671562737	39.18856617931545	-85.52196132754271	
-78.94084191008157	17.49464435381047	-63.95625777280814	
-22.40222871362628	11.299112990093846	-25.46994372819397	
12.343922092141497	-8.2730533323625	52.27686272454668	
57.50508665791668	12.47029821771766	92.23897011936604	
-38.30337364769645	-0.5941900460330521	-19.39263799631133	
-23.772494150137188	9.060813268257291	-23.64826805619374	
-88.79399469557193	13.728409058546156	-64.3179352989306	
14.95124870535004	24.743580030202402	-10.08501650682804	
18.909166544309752	58.81416838695243	-40.96880948484908	
-34.19378082354863	-7.439063082924051	-7.074270750359754	
-15.491296400456202	-25.001232181984676	53.75428984673304	
28.537981820940846	48.99000350579962	-21.10301788794763	
54.69369451377689	43.31440190586464	22.173081488780962	
11.62533485006395	-20.47640502526932	90.89643147322533	
-112.67079186687586	18.11040049168699	-81.8739930957853	
-6.930700458659018	-15.041223542470156	36.551557395753726	
-14.572814241415973	69.3224246131822	-78.31143516786273	
-79.60445272077966	-28.67648680843047	3.2368731383075837	
-47.58777026292315	-39.14650676549309	52.63074592803342	
-61.85691379220512	-69.64688635136892	123.0365826421894	
-36.87116335234559	-38.42689630025762	64.18663377975878	
-7.622910482764546	-27.74999056399702	77.39953691292382	
-32.98618925963165	50.821194523469586	-72.42857228935266	
10.729152137028407	83.6341681300169	-71.7913323629807	
-38.23022064313711	-51.53105814842027	103.01000609599095	
42.05653838835044	16.850782340123814	49.880826743879624	
47.91401462625974	23.388265967392833	47.608544193110674	
-85.83830981955589	11.960209070540001	-59.15589090189818	
6.704893507689089	-21.847341260216176	87.14334406798234	
-69.49836217568334	30.567255660845547	-72.27192336452815	
-90.3326544104979	4.166685571484914	-51.48567161645957	
-21.197554631824435	-9.812494329957538	5.376513646076835	
31.58353031579284	50.755201709630114	-18.76818716071199	
-56.633869940798256	-4.4222841499379575	-22.668218908850225	
37.09367833997689	41.909624983555496	-1.6245250818317705	
-20.80837576027595	12.906985997302908	-25.68440753526895	
-33.244980427686954	-33.073621915317084	54.42205702718975	
41.807689369773854	24.535486916424162	33.26059771564368	
43.91160295438605	6.158494623487217	83.47148334814696	
-51.77522036545771	-2.9900156000397815	-22.008175317196017	
20.508068902247075	61.95075356322948	-41.285149493775435	
-53.67948450953966	-4.161547884068168	-21.308536554386798	
103.97925918240858	76.8713829930531	54.312568590268704	
-40.14306981212269	-1.6727422882766136	-17.92404315208696	
29.173335176996527	7.0988593654480034	47.26012517073604	
20.12355178034472	-21.435762905155443	116.54072919293115	
-84.36121747621786	47.43710825985915	-98.27449322869404	
-11.12036370737964	21.72155526003942	-28.560398688307753	
-45.61667924152752	-8.493484705888724	-10.601647808880374	
72.83697640436525	49.32144499817204	46.507149586120825	
-41.14572407849298	-2.445827413207552	-17.19920507245862	
-20.639331377867297	25.978148575677974	-38.79296439263135	
-79.44136981761132	-11.42069802517101	-23.443755532168534	
-13.877910391575483	-31.285656312260507	80.85050284634852	
60.49764693321496	17.64768329176984	91.36128182750156	
9.305300581354505	53.12816249957288	-42.36744963302517	
-77.02808681837796	-24.07137948961505	-1.1777173687217644	
-41.107380007353534	-38.36301162323121	61.88243614677408	
55.740314436996655	19.481065405099304	76.94925805650354	
-46.91054738060927	-8.202733958827451	-11.209017480729406	
67.1309878782956	53.75258127989583	29.97812594122209	
70.83442430766128	46.868513749668274	48.7718750589535	
52.217356335876076	9.869276688377045	95.49955793222631	
-57.36329064783195	8.474256712956754	-38.82525652929934	
-35.465234313517016	23.315355279859272	-44.19476117111794	
-36.31141973890559	17.973740733199353	-38.87221787045369	
14.610220805578185	50.37726249044999	-34.486637692216796	
48.769175756250775	28.81568528939411	40.75517712768718	
-9.355236222499805	-27.598196920208693	78.97001885435458	
7.210900675456322	-0.3301487881832368	18.49852776191351	
-58.97962786482695	19.31908044060663	-52.107743333737396	
-41.58437205283736	-1.8071124513371344	-17.641816390032098	
-54.716204807554064	-7.1205692764794355	-16.425579009861977	
-31.805137116554583	-16.85854287794258	14.086068163530683	
-23.766082952975744	23.226546014858023	-37.158687978732864	
-24.032992735527284	48.750153562857484	-62.076156791369066	
36.5194158725183	33.99559498259868	9.758049372932415	
-41.9689578018961	-1.4295033720020776	-18.14464041858061	
-22.130545434799842	23.04952745972003	-35.95236946111915	
-37.414647827407634	-4.691464098645459	-11.265772856808741	
13.191366717535432	11.704829288791801	4.409438768028186	
-24.64717956610355	66.7128685987962	-79.26768437980778	
1.7477095068960105	16.295993322875535	-13.57469471564392	
27.289542998660085	32.02002501642242	-1.166207461213708	
23.88375552992059	-2.900521691964477	68.85722951854912	
21.891657187045496	4.079627034924958	41.65829599688816	
-7.707113147150303	-27.502378376065185	84.09177264123979	
13.65539909931403	-23.51899000396103	116.7791711015723	
-41.487922243360984	-0.33217720842604836	-19.16984289881229	
-87.90113884822128	26.008276255508058	-73.29997031845825	
-40.42420881760644	-0.5475917219261385	-18.320348067701623	
88.82978306032331	75.70346296084834	35.36036308782714	
50.204571993348615	56.336440412155056	1.2975549096338963	
-43.26350974089629	-2.6357660371593816	-16.75212819473144	
13.871284797261207	-23.8302750859116	119.25278085696583	
-31.693962578530876	-23.139333910678012	31.065599499339232	
-7.500241952282199	-26.988880060780062	83.45241316878909	
22.671138443168275	57.844768384520556	-32.94533689383241	
-36.086788800337615	22.351147204680952	-42.591810462440876	
-44.9561427522431	-25.487908919237526	24.917822417000174	
-86.23145365782675	13.91187601188328	-57.751258181754615	
2.824929014688557	-18.959391145321806	76.82115274246459	
76.84395513373475	38.959346217170044	82.15541067174009	
20.53293599953565	-5.279727379770905	70.12532603921048	
-83.24147521037588	18.431495488995033	-61.548184000143344	
14.637355788097738	-10.685994478173889	74.81865367800272	
58.407734933416364	115.47421121912868	-51.49739840817251	
-44.86278531901361	33.00039287379372	-57.967143968250575	
5.692147761345348	-11.47528921350764	56.19544469505124	
15.741673656229255	-3.0189043547532997	50.45319003540298	
26.583003715950042	115.45136799746689	-82.38238395430015	
11.761581266736837	-12.576293940761301	74.97107308912635	
-37.14192781501454	24.912751098333338	-45.46589636956101	
-39.65972654399557	-10.50248840527093	-2.477667497984961	
-13.776240378584239	-20.916677248209176	50.28792066230229	
-51.55068810979083	1.9972766749731747	-26.368218667017423	
0.26882141897177936	18.535212655635277	-16.514074354794733	
71.04105482040444	70.66269361363652	15.003719270240193	
0.9830009336694194	27.61840681101495	-24.123794323492696	
-34.168500082566574	-23.916442638590045	31.5584960394093	
51.68688061468512	12.827354765212048	92.09377559919541	
-46.11244047764753	-24.795103009532042	23.13819378463889	
89.13999116664064	75.5636059755562	38.386273735814385	
-31.300304009583385	62.299824762413685	-77.83221254328042	
61.44066397758452	30.575402179977896	68.40796269126085	
38.17179151150878	27.397142953263195	24.932818358870644	
-9.05614831634627	26.328170657450286	-30.120201486513036	
60.386464594694985	34.33285653296469	57.62188023470826	
-41.75812373977872	0.7209558561261449	-19.877694027782404	
-42.519377010786336	-0.38496204304624004	-18.688534497567886	
33.90010496849169	55.610831848891394	-17.64314492488206	
6.696563604808053	49.94758042201272	-39.08594309549474	
-113.54934587520239	23.762898072054018	-80.21971503684829	
16.168738316116816	-14.020621886872988	94.60273220932714	
-20.814622158550936	28.36367596881011	-39.03344125385557	
-49.813875931075806	-24.169620555524936	19.762276589318795	
-45.063697539302495	-1.6128941066467621	-17.912713926388083	
-5.865560246849272	-31.317088682843636	108.80974831348819	
-48.82256123399982	34.972027389679944	-60.91759814672266	
41.060764081302864	38.725579457578505	12.779785426140888	
-49.59293279432737	-36.71325952991585	53.75246405128241	
19.350323827394792	40.97229345413831	-18.82755001479871	
56.24986632483899	52.988456301175006	17.804651905320526	
-62.68378869983985	18.509181982736397	-50.02187461437137	
-20.631393377217698	9.066524606060469	-19.7117860721454	
-77.10139814458925	-47.26035495153706	56.24312703064327	
32.66996248093845	56.89671701414199	-19.502024955927943	
18.390497903300037	-6.993268529315419	75.48092826237871	
10.760141473305136	118.0084301835769	-95.15691385858966	
29.508914366702236	54.27320687066789	-20.412788701367756	
60.26738518266699	36.66832005768255	55.118911296678036	
-52.88861276177164	3.2773943075921625	-27.346390496108796	
-13.702905259594372	-28.32393302662204	82.37900846545601	
-118.59927242894638	-10.44971195861896	-37.04298981638206	
70.36741198808554	71.80739963948564	15.524028796634912	
0.9349292385144181	31.128822059990117	-26.486753622532163	
-35.154776126095435	-7.0042635789944825	-4.998226960009572	
-17.02354153751609	50.84573345050709	-56.48413182053855	
-114.33687891998369	20.433992516773877	-75.09927854426036	
33.801108155655484	18.289859631426417	36.487645087949225	
-57.82845048009921	21.156730043645922	-50.07073907539562	
38.00134632577427	57.49690417354407	-13.213473052031592	
-37.00056464606031	1.866370084862473	-18.341771370300346	
-34.426214895001884	9.102942774818468	-25.902089470639098	
48.03205647457736	19.90300821398373	68.02180776524543	
-75.26839069514449	-12.89485946516917	-13.673833803704403	
-42.414672188818464	-36.55038785249378	64.48045301763067	
-32.46364150134982	-16.42050332649586	15.411848784155058	
-41.24484564311498	1.015651812306187	-18.978814613809785	
-37.93859274467522	19.06541409528657	-38.19359509373435	
-39.06088941999183	19.620571793774154	-39.31183599467123	
59.00605635618943	20.144132697279566	96.71974208191193	
-42.37445970719203	-16.277575404628518	8.653116686439144	
-3.7787427672575946	-37.091715343334535	143.37991336206613	
-42.384853046917954	-1.1895660131051233	-16.377572084133046	
-42.136008766240295	-16.03080057899386	8.471728348704925	
-10.789495186850043	-14.80919720291255	37.0951418658911	
111.22432329830355	65.0637334907325	111.43439285727874	
58.33147682009967	34.22484869974213	58.29268666802156	
-14.802152594761724	-3.697185871428911	-0.6753912716183806	
65.34637098872793	59.1217321587232	26.70934128386275	
-16.753168330127654	-2.7754410609243343	-3.067022659466795	
-92.34969928314158	9.10611897752883	-50.624546929942056	
54.998823312695514	118.3020704083342	-52.54827737029462	
10.753432273488388	15.40494083180618	-2.641611611980713	
20.53504844513936	1.6294020199164716	52.33477302022992	
39.17621192797658	26.86144157986696	31.176804845102815	
-53.97700531460217	12.69349410020469	-38.21050607045503	
31.97637922051124	3.2354471157623435	79.27598629512558	
25.663707711877375	28.510188249070364	3.3545307923981444	
-41.134272351150884	2.389351389796431	-20.304333872173608	
9.357971423328726	37.02814473712321	-23.959587947353533	
58.74679597893641	31.480237707130712	67.01830390649192	
-27.488642551723295	-33.20149521515268	78.64878599218102	
-43.278044675042196	0.31947424898977567	-18.421695398994018	
-48.43404636817189	-8.077115443280615	-8.455460167230875	
-152.26038776234864	-21.217265876585046	-32.99583732700857	
-42.32039954607605	-1.5337086891027567	-15.47089222887964	
-26.031494803298127	-14.600342080697155	16.769505591774685	
-42.04214143286531	-0.6457770009613389	-16.495753839983443	
50.45254542317202	5.621984562986339	125.63260389088674	
-19.130642907131445	80.68892109299982	-82.28485063531683	
-28.26074258175661	-27.90999153541571	57.97247240344066	
-44.791599386305506	-1.5599557559885437	-16.289430628040947	
-117.65987671230383	-4.926324444289734	-41.44750124944438	
58.52857836137829	22.157226806027065	93.92753180049597	
-91.85537126251347	24.460134588406987	-67.20575387057721	
-30.70219828567067	-47.36459947843544	131.4555713016451	
-10.468433363789783	105.80032089354864	-97.25878666674546	
10.304005515139128	60.66225046672825	-43.0137854203053	
58.066487322313584	32.59252196241555	64.21482807014448	
-46.76486285203142	-1.406721278664196	-17.13651615097944	
18.182015855758202	62.61916381402783	-37.66332526328005	
-74.32067487011952	30.227593446518938	-65.5840925673372	
-2.570888904995468	26.67637763262406	-24.4216181773022	
57.67466095388014	30.527000712220303	68.74779900848026	
10.844552033628462	-9.064808956314737	69.448008862302	
-86.00665660719434	78.90537448228868	-118.97299977238414	
54.24904763152813	16.492379783883326	101.36308644055083	
-38.637325743064395	-0.30766932890782905	-15.173185376566314	
55.287523672520855	118.87994495035255	-50.36757991097496	
-86.21442037404894	16.619297273782237	-55.24225452831699	
-7.685203644490183	-17.94437723049583	59.87024765771342	
60.81522864306863	35.752260795826395	65.06449418097573	
-20.212214358696297	6.8678025433978025	-16.19527477976083	
-53.16758430131714	0.09162692814214995	-21.20683606155731	
-116.75266670113012	-3.536260642174039	-41.369307815217695	
-5.686304270968867	-28.232059827368776	111.68702196953609	
-37.91293883186935	6.499560280857601	-23.010032023557144	
23.73575743773898	28.970841336309423	1.0471197827752956	
-55.85281455693375	17.427557155458167	-42.663089076531215	
-32.24887940455396	-27.750594348320487	54.27851194382991	
62.92090330673945	37.677309825806105	67.10031054839344	
-0.4299274681676879	-6.142789285672135	26.75803368323025	
10.305948565605963	11.374457695115986	1.9903596901322764	
-3.27484174360164	47.21244191608018	-41.3621764605032	
-38.03722047435231	0.07607198046123664	-14.803262582716815	
53.3474405436188	46.41796556477809	28.59550749165669	
-0.6994427717815466	-22.10577682193293	100.47524715658491	
-42.715948828429994	0.5300261657184219	-17.112724749881707	
41.870555631484194	2.9122595314998385	120.10390597132269	
-5.833677177016832	-22.023226814386472	86.49527224566299	
51.1986000407616	52.23255083587097	16.168729398287073	
-75.27125848957873	-21.918382583955374	5.861141845289714	
52.725551258423835	49.087962759223245	23.62845966243012	
19.933341189551705	40.96656613483496	-15.42779943375126	
-12.510113541904317	82.11596412985642	-76.22779346410105	
10.343009440781978	-19.85783869098019	122.66154814554166	
50.90450724712637	60.40281274094805	5.39996297483922	
35.56334219750249	55.33788913776371	-10.558937290336239	
-41.79721016734008	0.6141215817736635	-16.728580810877748	
-16.446537865464045	39.01137210848642	-42.95763387864607	
41.535995326170294	15.201155706966281	74.16877850602093	
-44.4986640933936	0.9222066399069796	-18.115961807075063	
64.79722428029302	32.36864792191431	88.73966780569474	
-75.33275776769523	44.107121604740485	-77.63386864073773	
16.010020135353685	-4.749756253342075	72.05460355445481	
-47.91027927929197	37.57973138276815	-58.427175240247855	
-102.76391324444529	13.988833160540757	-56.41755747093197	
3.889956893374117	-12.479327223966573	70.3783476469006	
-16.9434482514105	38.10675374574446	-42.32326456269698	
-37.00514323725712	4.17196946719723	-19.229102996939172	
80.32357354669529	79.61909608952979	29.80513041299623	
-47.51899486975746	-7.632090591923339	-6.690924688353639	
9.708957329049467	14.696829392702497	-2.334927464140127	
33.50583283908276	29.28786432289165	18.67762656115959	
6.300847341841097	52.286156691848696	-37.338505567398	
12.189881538915975	-17.919163866322645	122.63269854964639	
15.991717473366966	-15.393534217822495	122.69666283875397	
35.96958782594139	18.046335871696368	50.160991334220576	
-57.741066091508365	12.755411547773994	-37.05441199389913	
-75.32140179946313	-44.30150653932255	61.86495715039274	
-43.16692681936746	41.16958007867175	-58.98858675771906	
65.55432542438191	94.18602559955802	-10.215765077667864	
13.099910575461722	41.110885545817204	-22.037521969684335	
-24.216616273312507	25.492139784784722	-35.197905665394764	
60.54193953330265	36.81763995274592	67.33893288300841	
-35.46636022540785	48.86069116700031	-61.63788530922456	
38.14863702677273	19.76955618867796	51.90996344094463	
-4.049727200373188	57.16710583024642	-48.932018030633145	
-43.37038000191777	0.6145728488585503	-16.731795210520044	
-101.79702617284438	7.4484735355543386	-46.973974781835985	
-38.92503841445057	-9.835239548109664	0.9933071643373816	
-36.40390084951562	4.5095598018672876	-19.02507586698921	
-47.364801676784225	-35.13341367566427	64.41923948808744	
-0.7944396515590952	-23.529414895119583	113.59528475564521	
-4.957473130935961	14.770388780805485	-15.174323157572829	
4.33341120918019	-0.08024688869248574	15.004233126857438	
-40.85484319983698	5.530135832383727	-21.718725582196114	
-94.36864099592012	23.39356842731585	-62.301012465836	
-42.76148868804246	1.9449687553652155	-17.915822522683992	
-44.20660260526537	1.53202142212304	-17.879206148446947	
-80.20183456203877	38.63832420638909	-72.49973043707519	
-40.263208749912486	0.6609118834812621	-15.321353095607948	
47.730794472679776	43.066506755726536	26.00403923563783	
-41.674414121710356	-12.0794466143173	4.572592258935875	
1.6719905847809533	17.07318554981923	-12.188153363348537	
-13.329605430107044	-22.414472955638413	76.51887916587037	
12.733340624603567	29.57885213386003	-11.993998025263693	
36.105429576860395	28.078179278801496	28.203117002257986	
-62.985015291619085	22.76212679034732	-48.773997138047946	
-86.88876430287297	19.967688140269743	-54.920358556188745	
-95.75628964280502	79.86747501559805	-117.78492834952259	
-39.589751672912655	-1.113300083398945	-12.432830766349072	
-75.94054215382684	31.494706293739046	-62.90818188665611	
11.490235609276732	84.99600005336512	-57.773901362889355	
-1.8426411776028429	-17.960841569612906	87.03589725798834	
2.373867747084229	31.16524102752028	-22.64237409477669	
-24.61747489139455	25.714723150773686	-34.826029151129674	
-73.99903745070631	-16.189926451727274	-1.113113885214817	
12.580955838280646	38.75672979501249	-19.721808613407855	
-0.6292341801283096	-17.179042963002264	87.29137703936796	
-43.4276443072334	0.8927379374379185	-16.326274646737975	
-10.74620721672884	-23.222632953280563	88.98660883633089	
-30.250082158280904	23.01182015988666	-34.93788611287232	
-46.497370182303236	-10.153575291202177	-0.561354320245034	
-25.17782502177439	49.74220207927762	-55.165846856550004	
-9.300045354914776	-13.564146843715843	44.5202747769671	
33.442816891618534	7.041594574913686	88.6040617541691	
-16.517584193755795	37.44030786470847	-39.88356656377433	
-29.670708546968182	-15.793022479720282	21.743793839990282	
-44.538689907437686	54.50309607011553	-69.07597085202775	
-38.48316088244144	4.280478912502495	-18.469908218539477	
-6.183086277603927	28.351982765296125	-26.19542720174697	
-83.57336236762787	-20.912634774661008	4.75537208841726	
-42.857269295862885	2.538823944880021	-17.723311775894164	
-37.59715566574335	-13.533602947965555	10.727094449340902	
-104.04128149289058	74.38446080465353	-114.29669135169304	
34.17029735852582	53.57357244278885	-7.4594190056412595	
-90.63959022093752	-42.78013596965674	51.61914037652178	
-19.546612241505606	34.22794355892275	-38.71417966592841	
-82.44893813902287	30.122528178550127	-62.50380971442473	
-35.86257776437909	-31.97571216821068	76.98000603196466	
-45.68186655860704	-33.09973539335603	65.38269138120349	
11.225619630401505	-5.923396382462528	72.53557795475632	
51.97106383550882	53.896737584546756	20.544615419318802	
-33.603868830499685	6.246418553029465	-18.879877286829593	
-8.917013132927865	53.03523417149212	-46.93091520060643	
-40.36341437078745	3.3735796395731175	-17.714959577699393	
-4.129430978379827	-22.792874353452294	112.85464782059705	
-4.339626188222674	27.321780579232644	-23.968390521915897	
-41.42811469287871	-33.87960688463247	76.83107785433899	
48.51952509076366	26.567491494357125	70.79939370376268	
58.080373128896056	41.50148144910841	58.16539883298008	
22.294816517764108	66.8549759231552	-31.709833315034615	
-48.853278554443946	-33.500302225929374	64.48902412897267	
6.934159608493814	-7.548710265097404	68.05554260613452	
24.926013659589625	27.610586742665866	7.9488205831725685	
34.672916076181956	48.249769555374364	-0.46094637257339693	
18.19665006906994	-8.962565256661806	118.76215413676522	
25.655414649010364	20.12775314614986	21.950078834324362	
17.471208626512677	-8.449954629188817	113.6957750783877	
33.91955354738101	19.197694356459778	48.708880884462985	
-92.50632959923502	19.501158272993212	-53.15850992614765	
-58.26695725980105	13.749193353077361	-35.0964563606455	
-0.7667191165594819	-13.741205839470647	77.7807449872776	
-21.064672279119854	-19.14035411701174	49.62568810144983	
-54.554533720822924	28.976216313466857	-49.228392473866975	
-2.1569879554515787	54.45706985562318	-42.416569633190015	
10.103097810411995	5.326871984533429	15.933255623013707	
-26.493751405793525	26.202283314478418	-34.774980122947234	
4.776075810919836	53.64260751389292	-36.50614623119168	
-3.0738365337998492	-9.125181926466372	43.36861267902967	
-69.95309990382927	-12.486162051059852	-3.041076113863489	
53.68767709457611	31.700405679092043	74.17666328443401	
-10.374797760286542	-11.214972554468849	33.920570610792225	
4.839216010915238	75.82777208740241	-52.91615227582678	
-25.56399730369329	-9.072488498637687	7.969248918520207	
-9.166468796886045	24.349714300082063	-24.16866174644643	
2.197133531755088	32.604318058362864	-22.59626085870342	
9.302757427496779	-2.0893142894419774	49.33844573864014	
-23.670056077420128	35.73614356895343	-40.99472625408633	
48.01696356300646	27.720380564784698	69.47795534868345	
11.74390302592419	-0.276855777743692	49.54284765480533	
-20.37375674063125	-4.254951950069104	0.33274847140552444	
-44.09243259376847	17.695701286601807	-33.80330523580466	
58.80548422866699	31.40143148360412	93.96065124093687	
-42.23558112386949	1.7730607280150128	-15.322396243432497	
-40.05962227643117	2.6745128029141085	-15.73478877938145	
-18.926344994705634	33.35194413311545	-36.454286258649006	
-4.89058431990965	79.50613892528662	-62.2779257846753	
-78.1057840002911	-18.622679045075028	5.949414078117797	
80.72181710552965	100.62585985430174	14.989169564997407	
-78.9745117034392	41.23081564423507	-69.2962102671232	
24.852501504969897	17.676772158336277	27.051524084940006	
33.63127184742468	56.90301068154808	-9.020046056890411	
14.399214968164834	40.50839991778847	-17.350658880906963	
-20.507158508534825	50.09220183381733	-50.08738763287804	
-77.57614283527568	5.101895840814387	-29.812707752483288	
-55.930371902501804	-51.53707902911919	144.61969366638976	
-101.44874614776468	9.027209291425278	-41.582228902544536	
-38.019836135423716	21.17649360418125	-34.23440120077243	
24.534229182560356	83.45771542976645	-40.09653310566158	
-39.73482349241016	-13.703104538095044	12.665577468211714	
16.199222348120312	62.70303006944591	-32.15830704629282	
-42.15673437175749	24.996968374070516	-39.288277556677166	
-34.19683704481537	-2.196923260361478	-6.8260868032701145	
14.193637472594803	-1.3927653378455034	71.42322886977377	
15.22690216795578	41.949496083120785	-17.063059690197306	
-20.928416693544577	-16.10965003468026	39.51506660961556	
-36.98524673763591	-12.77271266246873	12.133813091551561	
80.5624503594629	75.96689128509179	52.15595186816732	
-39.943533169939315	3.193859657405556	-15.526097408942901	
-47.65731959633631	-16.44222961754179	15.967047831988804	
-86.29972298599591	39.27860580925438	-68.24242864589822	
53.520046975848295	35.72898315645362	69.35128381382641	
6.788929990184567	87.6671125226575	-57.46488585520635	
55.28095729916392	40.69654819669642	61.24646639265821	
-33.62659603388165	8.172581700158197	-19.227402550357073	
15.637494484163833	-7.366677977828991	120.71992694804085	
-21.368942286529442	37.27888337408764	-39.61707355054553	
2.043366403752777	-16.36333877715816	122.04366276220792	
75.15630236951921	47.45320826665029	107.73105794887464	
-45.75804817468609	-16.663681187894582	18.086538024420776	
44.41240741916018	44.11939702666175	26.26570733773633	
-0.11850697961682462	-3.727095098071731	25.549083185279883	
63.10927334422459	108.34946084336103	-14.827836782638311	
-14.17232990843495	37.598688434289656	-35.808064062031164	
5.877623429079099	27.73769452233619	-14.879039780083344	
-40.50186998339672	22.343866968043773	-35.333133579613815	
-26.78928174116931	52.69734389822461	-53.90106056344812	
-114.68679074516307	4.796161282522861	-37.55052008630845	
-4.734456967703002	29.77347835061446	-24.288902792465116	
-41.00728836621574	3.6159355512606925	-15.792601702682541	
-21.33536919664386	-12.00420625449157	22.296730520445493	
57.141729664537365	40.517401816418804	69.69515609472485	
56.97124053402342	40.40296816771999	69.48737584427874	
32.04573334390676	18.637657213215252	52.75105740018725	
-56.81767632512574	-2.380477608746714	-11.931615708430485	
-106.83807009609654	79.2043823745437	-110.65660574076765	
38.121372156551026	16.07727128809504	89.84352962423138	
-72.1229547889927	-21.384876518435586	17.695384339140073	
-124.6821595614082	-39.617162773907026	36.67939821224242	
-29.192513402595022	48.99043218214792	-52.06414353199681	
-82.28310179231477	-37.890652246869045	56.855012820674744	
-102.12619013115354	81.66759830129844	-110.55018201781856	
62.177854562531955	106.71144469563937	-13.344863700699607	
11.942131645808647	14.637719382574367	3.47752592605863	
-16.322335848398573	37.69467428581746	-36.628257130955305	
15.997658107033141	6.1662664190659875	41.52330201921168	
-13.631723586655376	41.864785815253065	-38.02177322432652	
46.76179816682384	22.362970841874695	100.69189836021403	
-23.368665764502133	-13.179148370210791	25.49367894895583	
41.75240761229829	88.15844524862052	-22.46897928194634	
-44.35732051706404	39.28408948829784	-50.824978855858994	
-21.715753037102107	27.668085840910432	-31.631347647719135	
22.07669931114654	57.217338749408846	-20.161903451732186	
44.97903979915505	40.71092943945869	35.956073081428414	
-27.36022936344845	-24.45292172271883	78.58506222937616	
0.9839233242246476	-5.535811371866833	46.96834833615529	
21.896080608894152	-1.4350212847346175	122.74228840587622	
-14.108587175598691	-12.303509792863434	38.74388496196223	
-97.54300437339565	6.034671605638564	-32.818699658342666	
-22.376338311658827	36.054089383870625	-38.12534107360384	
-68.27322114682165	13.92309665905306	-34.38337866263234	
1.6161719370959085	57.481137465257945	-38.24522529306511	
1.9197717894999977	-14.014472648225931	120.38391653958736	
-46.29653358358343	24.644976315071187	-38.357530845153995	
40.1841626149007	22.703976956617012	74.77638575673595	
23.59369756233717	19.764267995634178	23.04048236422446	
-1.5453834122609227	32.00983706470416	-22.922239354205498	
38.95310613789929	20.462544715119215	80.12055559048336	
-86.63729246708874	40.132963801340416	-65.8898929189841	
-35.558469452932535	1.9968033856161278	-11.408568670929466	
-25.58189590332893	-12.455828288398209	21.50099130858666	
-56.231136280173075	54.10785480808276	-66.88111947085608	
-12.035814652593125	10.033125714202296	-13.036509085220073	
14.011901000861402	87.78672936786143	-48.389533467246366	
18.180251045129374	8.860717783062945	41.64508618143852	
-11.647618713470742	-10.855825175275216	38.92129119804081	
-27.096574909147723	50.74399457835489	-50.71229130486359	
-34.44389906230957	8.059477353204743	-18.051844966825154	
80.2091295272532	89.18760705671052	39.93308982477502	
-40.826088412400914	-29.60152462322575	82.41412044417761	
-19.87567734755839	-22.527021002455832	97.08417973924229	
-71.5310242433714	16.088018592111137	-36.64849593467125	
-7.351915541113297	57.596304488420515	-43.881352646393125	
-22.638606920644516	-10.939546396682989	19.348172816307116	
-39.16363010762745	51.32123873354955	-56.68316167040245	
-120.58161953410473	26.364679503781733	-60.707613795630344	
78.5842659681824	95.58735758296902	28.862335085191184	
54.349438858206895	41.6671517801108	66.18369695711881	
-12.14740181114237	46.437201380602055	-39.05519683949692	
-0.7972637754062775	21.39665101347719	-14.858565874444592	
18.05777787905363	66.56671292041824	-29.36270772562779	
-19.425563646300642	-13.967113496159815	39.68487053155253	
-13.195907063247757	-11.382425828279398	39.647948953654904	
56.17647706170445	34.44137174926554	100.00283834628861	
-36.78098996915475	2.4655862668828163	-11.779036399343129	
-112.64047854901176	3.900042483922141	-31.246359615707018	
-118.40060898236433	29.808591226179495	-62.938365286486615	
-41.67345162032329	3.7724706933257144	-14.446189096374045	
22.687893059513915	26.81630596382185	9.807469515218154	
-118.94964819804677	27.947536392761588	-60.67844626646188	
-8.296416347178091	-7.9304019931326915	31.73818243052081	
37.642589369059095	88.8404411645707	-24.313710336771646	
-7.050634197281433	-18.5922544004606	132.20283597019863	
49.340103859956365	37.43645923284019	63.64960570612997	
74.69160804655223	87.83966397839366	33.9344654884304	
-15.662763491364714	20.001865479771187	-21.872694675677426	
-57.227100715224175	30.695669866303387	-45.73467670487271	
-62.703303169240655	31.58197203386752	-48.23189472968628	
-31.549013125087786	8.79024239562759	-17.38352455087969	
-17.68512144818005	-5.280156069092322	5.811449093043658	
-21.133205007226493	-24.61361133825037	122.02380330799286	
-33.31283041439171	24.375041617207795	-32.11750262065994	
9.632792268618052	129.08975360573737	-76.96837412897948	
-83.82254179115158	-16.688187707118832	9.414034068417312	
-7.262477600015889	57.079880014934005	-42.236284223334934	
-120.88919831503549	1.8057860727143022	-28.531461259945	
-6.663082723668043	57.08905641558446	-41.80721818356996	
29.6101290258313	18.974941296184788	53.05646433950931	
-42.84991706337699	4.015231270336301	-14.43103849040776	
-45.91217260875669	-20.731522832900318	37.12560212959344	
72.0589687383268	99.2149378660375	16.763856972376562	
33.604352904689165	46.04382010398733	8.067175296305647	
-122.46933215450585	72.70894418165071	-102.9643315124668	
9.557800053034368	-3.722929402122019	98.97238648166778	
-44.55639157656951	4.239683728500379	-14.961439967834549	
-55.45381810811683	21.571115722504725	-36.08668362108921	
28.45310334226402	17.42738077329535	56.55022006297379	
-23.48374473488955	-5.590913143611878	4.890707142285016	
2.0146857601884007	-5.509259241352815	70.52787636025177	
-78.87170179562118	50.527353972006715	-68.89893484250506	
-69.81661189991475	-11.966928204543095	5.163440850846488	
29.184395570364934	87.23179265398167	-30.46875733613038	
-27.60015633474313	-9.218603635145588	12.437475383135807	
49.15757054966265	69.80248295756014	10.221780145022212	
45.17133768897472	32.39792875564047	70.99853807997502	
-36.31953842787879	25.640457654201942	-33.52075617397806	
-32.137574759577475	3.9901822915434546	-11.566420711507059	
-42.52981054043288	7.982316254009313	-18.437676607422542	
28.574584742593913	13.094349925208503	87.36846364652628	
-22.572486214582845	-19.70590133645625	83.18524224270881	
15.788100175433662	56.86629043600274	-22.752218095424382	
-11.667991999657232	23.25380761541918	-21.712550060491978	
48.70693789862975	52.96620951069854	31.666159919384516	
-30.398143682049565	21.858646338475303	-28.21533045010847	
29.561658622080557	23.21044798781712	39.99647925382583	
-44.62374470872068	4.45281265377343	-14.552917360839833	
56.158766966872605	49.3745689774278	60.88906659471992	
-77.01691477283133	-6.358400738364735	-5.283368184080617	
50.50457291730973	40.36876613456479	66.63983919805653	
-115.91384744341161	8.97056093860987	-34.29121368593061	
-46.89506058102846	59.35671531838317	-62.96946096920981	
-113.72068852956022	6.156517727035662	-30.052569946800386	
-21.40140109754069	-15.211738194141814	52.100819310639935	
38.96674857234853	25.84859684037788	73.85393005958596	
51.915722729649495	104.32572233761768	-15.140097843020198	
-109.853480115822	10.93987897329711	-35.20673248139034	
-45.641123620702636	3.57603903578944	-13.347889989954727	
-53.93776902024437	-27.722940592400263	63.69842728159101	
-60.97651418517266	2.836743249528101	-15.308088008082201	
-21.153070913879155	-14.849277246506563	51.89108861343952	
-30.793569330253142	-15.539640843499457	35.579150376223254	
-26.32212945174034	-22.18578934063396	98.65985383306125	
55.691113741561566	104.3260995886266	-9.28488906743531	
-68.54739820891776	-14.216380502421602	11.973993212567933	
33.943001167383684	89.03876482027235	-24.647320464301405	
16.320943615870785	148.29007456736093	-79.2292985771704	
-60.34781212417284	4.174934207749045	-16.476968116473586	
6.289594531825708	22.42693384396068	-8.52011570708378	
7.409441941243978	13.867651915355472	-1.1561032242331855	
-67.58733268789052	-14.236204386465523	12.680462043431149	
6.607100569386047	96.2958872826095	-54.28841958790454	
-13.267732302055954	9.436656228130461	-11.918507845789417	
-33.90474806832374	4.5496018918963745	-11.81818287861698	
61.906414663447165	104.0352373151595	1.044182680629139	
22.926399393009333	37.38491791661549	1.451028602916404	
-85.43646606938324	46.358397795037725	-64.55353206534626	
12.225967552982588	17.192837953115408	3.560331429358887	
15.143951057328922	4.619625889987006	80.21859444634329	
-44.265172487463275	6.384329521529846	-15.81866020266547	
-16.7650538998199	-12.912476378515084	55.7491943259108	
-54.56502858429152	25.980645839463843	-37.78767930709885	
19.99451570487657	41.28458873769283	-5.762617819421378	
-116.74762859541922	28.461877201409475	-54.44643481244639	
43.67981763487107	94.25115193303758	-15.576237848199707	
-26.91275031019144	-10.462055750817694	19.067064072332574	
-26.417761338840428	27.211399300900148	-29.99891069059019	
39.09203635196627	88.61291843876808	-16.971769269489364	
14.440951843662775	42.24810563851169	-12.879006815828491	
-43.14100500653867	-18.296337309869724	36.99143061916051	
64.50088580242321	48.01405665060892	111.60073369928624	
14.777842501283233	8.430107932137396	42.217422488705004	
-67.66881537590393	15.47409849924614	-30.055646493574457	
-31.773481809198383	7.062581015835573	-13.850204707372693	
-52.49084866475623	22.64598895445731	-33.69156463854545	
-61.40021638572492	2.6325480874624145	-13.364986036280678	
13.68054336239281	9.576948455744835	27.68434375553298	
3.101181375189285	-0.35307069938858016	37.14079211588764	
-23.392702922346317	-17.964197729359967	84.95366140052519	
11.584175091819883	135.30234141402045	-71.79877077040344	
19.178030879749375	29.260228967269097	3.9844069513445066	
48.7168856779297	33.1584012717369	107.27863612883263	
16.959040988144935	144.0515977834003	-72.31659045286156	
28.723011354596505	20.602993713380506	57.4232470119844	
63.502494274954486	49.00247162894593	108.75521018831675	
-106.7452142918903	10.72891254756176	-30.3108323820785	
-108.74676660859802	5.9188607660445145	-24.397995330395105	
5.19449484069786	42.60400400651862	-21.096250231874766	
11.5008703566526	48.10125780976009	-18.800869051803467	
-38.452465728077385	-10.547150989576041	15.019044993994637	
-48.79021092441735	42.68027917207836	-48.4119201466362	
-15.176625542451788	47.25143363350145	-37.28350813939568	
-64.50542475697296	-28.376583790080286	64.87426533502125	
-40.21680867301267	4.750982694435007	-12.099701360475603	
-71.97427403134049	-12.16501235719791	10.49928504951532	
-114.62822393523956	11.75950965089833	-32.099294358397785	
32.095225885020454	19.697981934613622	93.61808305409632	
22.139004589490067	14.486131954854795	56.970377310746116	
14.181628091054142	143.0398306314099	-72.59022706659786	
-7.795570176290447	-5.899194377185844	31.625084489988392	
46.576399846108544	111.67429236006893	-21.251919620202383	
12.716890513285353	16.656117120034672	6.181086486448316	
-35.92591847226528	1.2165317075597495	-6.6863005668664774	
52.61144327797487	72.19952828791442	21.6110305760868	
-48.22239463062058	24.3486875991215	-32.82359535506339	
0.2180642730862051	-0.663491110118472	16.917523573580183	
-78.9585201265936	-3.4682818584170074	-4.738287199959536	
45.00399823229768	33.000409411966636	99.28611907391846	
-23.16458062991093	-5.137945756218197	6.698094931553105	
42.046191578246805	45.433618555017055	37.162573420550544	
-33.97231549439574	3.9733850343140604	-9.59411553892282	
-37.49449955393426	1.6568715994245073	-6.9432587425729295	
-12.115883795314314	38.92007212867685	-29.646559953107232	
-49.66861132319656	-16.469786794456493	30.939174701529705	
-34.97804433532543	8.240096815080339	-14.484021348290987	
-32.42797558430962	-13.67639914931154	32.95703120341331	
42.78115677703554	37.250268369679304	64.52000012795726	
9.70444146738772	30.054498457380276	-8.438874902868063	
35.68406433952152	18.58593202022701	174.63665564739318	
-94.74126844761663	-40.26279286956421	98.17002523521242	
-112.80844117837017	13.10405153983937	-31.24090431974263	
-22.1073816891948	-2.5829652443712843	1.617337932896677	
28.923007110956465	22.536388562572146	57.4649356396127	
-102.5569265171258	10.041050114862154	-25.972124004983286	
35.34596101573437	91.22444861908673	-18.687976529218975	
-14.81326762771583	38.5186847753803	-30.663745070837017	
-62.847692467479945	25.159953040229645	-35.90332463606656	
32.669612226371825	51.24910680724726	8.367218802872536	
-23.001567735174632	17.293231885948643	-19.838628942418275	
40.41973135419589	67.20223062492508	7.079400844267533	
104.45553171980967	100.75492890959728	129.569181540245	
13.496764802988322	40.905292063420276	-10.707291422400552	
-52.49685794942372	21.367910538087685	-30.03172032379817	
19.683251596877806	15.878253838066906	38.295984549357456	
37.67287403560756	45.608289799707165	26.882754981705293	
-4.990023252193386	81.36671622635666	-48.54006423614517	
29.815132934998406	63.655631609648324	-5.687829195808765	
-15.125440126136388	54.3284627382591	-39.61474740043231	
11.199063334390779	5.025831556377207	89.66137686013657	
-46.888286450935226	64.39836171724377	-60.285732656077236	
-23.813355842069278	-4.81276875713838	6.579137141317738	
-32.49377683611237	30.514332542158698	-32.12458621284622	
29.71385505342793	23.991536882443175	60.000679568926564	
13.51643123827348	149.46859778515318	-71.84608907974074	
-21.718167525537165	-12.539219271420377	56.07251867420003	
10.507892103435172	6.699460106673805	42.2130438705231	
-106.35133611415257	10.017497292179028	-24.20021516793768	
