13.103757050406953	-86.9593843230827	33.40894092260997	
-11.201993712637687	-37.11744109013546	48.180468371152415	
-10.950570151057972	-4.443762118487632	25.095896873264067	
-43.90862341892682	23.383028139984184	74.0472079006636	
-21.59873598870843	-20.053458085165527	59.897190791612616	
-14.723106280202654	-12.839405901848114	40.431427119901386	
-12.050409851141765	7.193054841655899	19.897373223491996	
-25.675126467760947	-50.56069263871767	92.17959801981127	
-25.861959381218476	-51.85472208326761	93.65542808824333	
-8.44006247740821	-32.65038531285061	42.9594230834857	
-8.980869815887905	-33.45199267292047	45.20329903130462	
-10.76810909133729	-26.704356572455268	43.95772187947544	
-4.285486621975005	-58.86158415959033	55.629535816778784	
-5.415907209604086	-59.610650901298136	58.9820857287004	
-18.756753842441583	7.975552290511808	34.454866510196275	
-15.004032743428052	-24.21484310572072	52.063502268891355	
-1.6660717587498868	-61.78472534675869	53.73541973373255	
-20.32209515361196	-18.210457819030506	60.58344643422124	
-41.72436699028783	23.870612804279133	75.05207985261224	
-14.924959510979372	-22.660794262895553	54.4811313654076	
-3.3798375659182263	-60.25691669904484	61.76570598309912	
-68.19900504976995	30.624867212221808	131.26062570647514	
-42.07359093604501	27.116355933761483	73.74320194577145	
-48.60825574823114	47.87654956071776	70.40427037939207	
-62.950063323489324	26.953252521028755	126.31003772989556	
-4.688300450401111	-36.28859235773432	46.01410949533153	
0.2633231118701699	-13.015661080286538	11.820279071414912	
-0.6779897306985483	-29.120524938497944	30.674509966419244	
-45.52805085869449	40.69468002106468	72.37855810100173	
-9.22705086777175	-29.50868305590214	53.07671172616513	
-45.009652836426056	0.9909255178519364	117.11532439978879	
-4.134993457549377	-34.87798443068123	49.211565927310936	
-23.089548224450645	-35.203986648682076	100.08323773921057	
-21.472785336993965	-6.2282130536490685	63.80972280728932	
-8.655034237354414	-26.98871339749083	53.363226235698505	
-19.520114209338818	-6.808373750891701	59.94693242769979	
-7.2278993099042514	-8.11147305480536	28.49622350646452	
-20.530792239550074	-10.083070334456782	67.23872434767799	
-18.510913458842865	-38.62432010569349	96.39835145700732	
-59.23184708666876	32.07330235613708	126.91062009104913	
-1.4448103959429373	-35.3477797749309	46.43635085019367	
-19.369156582978345	-6.708484516752941	62.834938123995855	
-18.52592025468309	-36.90050217016445	97.31072053318846	
-14.256536305871165	-44.95260686886106	95.4854459718015	
-57.68195729892375	29.13897364030135	128.78773078019677	
-6.062083043789789	-38.225770039993066	65.05817425285227	
-48.34435165997449	51.87660176697038	73.9560132240755	
-15.678698973204453	-42.001730068860276	97.60757566766468	
41.94485732866294	-109.35253228117406	17.915680922116724	
-19.67128364318412	19.41285698154647	32.90786936288412	
-13.66498439542117	-37.01172339134751	92.76497841243686	
59.62455484026911	-114.25101978598484	-25.674218895485037	
-32.26992960134632	18.58164958499619	74.5507772371892	
14.848295521840237	-37.68164613634255	6.8970170333314265	
-3.6032591958237883	-37.52180420366589	65.91295427242304	
-35.748685628016005	27.265888509726214	74.87471142017498	
-10.183667160097588	-45.72840275566307	100.88788704178117	
-3.4806964026101426	-76.74842330193654	127.70235562132184	
15.975162069925727	-29.459449727396887	-7.711184916816588	
-36.470355116077805	28.420400490041814	77.60456397322393	
-6.51936516938278	-1.6548523411860099	24.983653007743374	
-12.669596192008067	15.169390925811484	19.17959317727772	
-11.577105002851512	-34.152768898730706	97.72539823785466	
2.2186993594528013	-35.31252581523575	51.28404037453726	
-9.17029464120569	6.250443706285751	21.98186761601277	
-27.78844104189451	36.1837270500328	37.62550409299272	
-3.5779135370877473	-23.82972514467371	53.77541489932176	
4.130833832192224	-27.30466013163578	32.399196308731185	
-3.3525138456315315	-49.07043788182044	98.67474547513044	
7.1212750282711506	-29.180815302730213	25.379432857646687	
-1.702256472541557	-48.91464062005186	93.94728293536372	
45.10078224544739	-107.15001332821647	24.96890446839672	
1.5592448604593399	-28.775012094194658	46.18342589152761	
5.554902285675576	-29.514863454482285	33.43595179222109	
44.771820939760374	-106.13334241996378	26.518297434155404	
-10.58552823761365	-30.035976790716383	98.27447242411155	
-3.8990188216361528	-7.124620392028546	28.873474755720434	
-8.909866567639247	-31.794330853785812	97.21492389173295	
-11.473531300307654	-11.188180171109629	68.06906334293224	
-5.778594200228519	-2.3692917574224714	28.006484257673392	
-43.97640206208128	50.435671674573186	76.89883037076085	
-17.530638413190164	1.6116953856721214	68.598602246968	
-4.4092859218503815	-37.23019509573352	94.79230875326971	
30.199158037832834	-67.41998492583095	14.588623432025676	
2.959939136994464	-24.1710463931914	37.94359317465373	
16.016074600554823	-36.302635121596936	9.281698773241885	
-21.010758353514642	20.207981833158893	45.62373947710971	
-3.5704405204465215	-6.212039149814781	28.181650527833533	
-32.31262453185879	27.164366601179992	78.58570923803089	
9.274198574894692	-29.303501062672808	23.712376969808187	
-34.11972696317111	42.616560966575314	54.529026866358954	
4.058828563474193	-23.58314090262333	35.49514058372025	
-13.000080381400231	-4.60991396275869	68.75634040507133	
-4.585700725402251	-32.24220740329975	95.29373143961973	
-42.474156941340745	48.27060972331274	80.44958935162481	
-15.70665202126202	8.472745973161354	52.44862072394589	
-1.9157942402467283	-18.21078149562356	54.72092890967955	
2.0276396238607073	-27.024613218389288	57.956352332654205	
-7.212664762111499	-24.105236250968094	97.40638458327184	
-12.410909698805478	-22.20853387398445	118.3620523681088	
-2.7286509222005013	-16.07822292437461	55.55991792497383	
29.376169961559693	-54.71698600826336	-2.400998780333031	
-12.719660806591872	-0.6834271640401437	67.39387371396606	
10.485167444977499	-28.43090509694217	23.51810973224687	
4.154831201603764	-11.019775195929066	8.911866892644957	
-12.886189893831034	-7.330612009150155	93.16744408715864	
-8.74475808346692	8.457978611042376	23.55487350243495	
17.237017169270363	-36.25562847505621	13.048350921221259	
-13.743005606742296	2.242890627543867	70.68763070060628	
-10.282693866671131	11.271866525420327	23.926063933809182	
6.753282298674921	-23.941251910099897	35.79762945951715	
-7.212264909263463	-20.03335216224983	104.11505715025291	
0.42068283014456426	-10.815621750886628	32.123829779723806	
-3.689008381597794	-20.629331384385374	93.09011315891263	
-0.7645608590921302	-15.420073899194126	58.644587443677544	
30.631012272558245	-55.01639311336413	-0.6687000805503004	
18.773538539294456	-36.50661148471356	9.908160357191706	
-0.16284510748866315	-15.07123203609109	56.503868261168485	
-0.69591790578947	-25.053704556137532	97.53620572561195	
89.10837271561066	-161.3696857208681	7.775169293094778	
4.056016255626038	-31.264856705895063	95.74966398937673	
-0.3095274191554562	-15.17378197410165	63.049919739016765	
-38.66212114816671	47.387322610454156	88.29998755450573	
-11.791345103206657	7.42668850894565	57.0069298574232	
-0.819105907413261	-25.88772836156871	117.66498838104289	
-11.094067406246811	3.4622396704055385	69.30641615461948	
-3.094406077715779	-1.5783765040037037	30.84161732549298	
15.276221038795066	-31.417020340648776	21.59094633229646	
-3.6760886483407798	0.5455418800684577	28.628150156745548	
12.466453826658322	-22.70394774769255	6.3426648002991435	
-4.741184755472305	-1.6922700737387657	51.89403863814862	
3.450566651166217	-23.158327753489985	93.83473493441362	
-8.878840443016768	8.50096367473453	37.22317014338424	
-1.4311865215202195	-19.664671157881564	126.51380639561101	
15.215483872765663	-29.422852384585774	20.53134735735039	
-40.001895248401446	53.4321193013779	88.82868914852294	
-3.3070283100001348	0.4793023548980949	31.671339750742405	
9.278636000793568	-23.513334531068292	49.785007765458495	
-0.11584488209222028	-3.643371875351153	24.97516384882055	
4.437227510974279	-16.254625731840942	60.30785930376624	
39.285471045094965	-64.56260760183602	-9.428138952214882	
6.19642517658443	-16.95880826498568	48.82471968934083	
1.3703314270262466	-14.332379235024465	95.06980186905334	
4.716781412960756	-15.135479194772543	58.457810711607856	
1.825115217069621	-5.143558562061674	17.073236735978412	
-14.986530161122992	11.578183197707103	109.3601363146407	
31.61233696290274	-67.11384699901743	121.37028460104807	
9.350646006201453	-16.697473492884402	10.122729027782036	
12.864438795885748	-24.206869012051445	24.90533717063767	
-6.775344396957305	8.404575071746232	23.93892034099469	
9.982269870385052	-20.756364110746564	40.458492229928545	
13.351224203214064	-27.182108105627567	50.63131182692433	
5.590129723789043	-16.806237811544655	79.07806970185712	
33.38395685854432	-55.55957799105017	11.51521874771203	
1.5267368956905827	-3.873171842040306	14.800775899147357	
39.14170667982928	-62.31972268237345	-14.847419321566779	
3.1094507661199335	-10.536678573792964	74.61031402333217	
8.758055519905191	-19.670542355630904	77.44837921600501	
-5.129220191878132	4.445860980536788	56.50898155841681	
5.917448878884203	-11.289694189388559	27.7876748020419	
11.641897487181822	-21.11696044152554	39.747462018009145	
9.10288172003265	-19.338757554626707	77.22486165544217	
10.007694538278937	-18.306487655504316	47.63333803889102	
5.771990598354249	-11.636251960663103	56.98369171625915	
14.157898990356726	-23.862523226006054	37.545371583702575	
7.735678096789972	-14.220933825733434	57.24328809350488	
2.327678847257833	-6.365154003158642	81.48478273663869	
2.1647563911925163	-5.81099675427802	76.79163142501076	
19.295580678317027	-30.26902049476273	-2.113165442416764	
-1.5098004044758835	1.5072554267086755	29.170409709417207	
3.775152682048137	-7.448283988672938	58.332870675075384	
-3.1447146542880327	3.348156498939355	71.02599940201007	
-7.312548182844848	11.022538142145937	20.21772586019677	
11.067512659663143	-17.983986179681335	52.36805855018496	
-31.18801574370791	46.69513857783841	141.71989226716224	
7.355371784645767	-12.147668098906133	85.0291813364572	
-11.857294597594004	18.473548660942257	110.45240189392	
6.3559204390207595	-9.608685857384705	83.02682012889018	
3.4498914825343	-4.909887247819021	33.073478289445156	
4.487764565349331	-6.209478811436245	57.94101913903058	
8.937654221320102	-12.656384522379739	58.97422532742322	
46.95335604159096	-68.98400195319833	120.30512262535491	
-9.543814154477435	15.123030962676806	22.630734440907673	
7.028124838919825	-7.720635666812701	83.66814888751222	
6.048388419667193	-6.890765322391771	61.863331180522096	
12.164192370643695	-15.631191867798114	48.79241281008503	
10.79789069609549	-11.41630028888747	90.3019996128677	
-1.1962528974388031	5.266580971111546	58.26397796700008	
-5.163374293649858	14.151168039017314	107.05347751357525	
27.399149500047567	-38.93549892548965	27.246000345955512	
-27.204657731632754	49.067197451687775	135.00523969463424	
11.880344334649243	-12.317364917294242	81.69939125731977	
15.022942509433209	-18.952686120695343	48.01681434975157	
9.079585301595058	-8.953725475889588	53.94571208582543	
9.061876527317548	-3.5297584681448932	93.83702680233752	
10.25718487183889	-9.851226198591636	48.09169649643542	
12.61809385822279	-11.800889081016027	58.593409655891904	
-14.0421021369359	24.56755861389272	39.01022450737945	
-2.6577629933667697	16.763632613196727	111.07018285719188	
12.769348678381235	-7.739476120772451	89.92647567985175	
45.41462878456954	-48.31086069581992	140.1448865901941	
-9.962799406208926	26.78955276334265	100.50817378021499	
-3.3822971010929614	12.468082807133069	60.67467244717332	
14.329324238916987	-12.49792935187696	58.09217237628015	
30.077762905139785	-39.102573319944284	25.212320326928293	
46.0491199353012	-45.415918846058744	138.81115039568283	
-0.3921111889769902	8.940720203454925	58.49092012882657	
-2.6764893934325986	12.421053796327548	59.59906693209397	
14.004056765810189	-6.5716713054464355	89.75130691565772	
-43.94796738044943	77.21470694850782	104.76144012566088	
29.52122701192491	-31.168461005387513	68.80930848962203	
6.887941058216101	2.2793790560284632	79.35027579567912	
47.61485700952572	-46.381497460297425	134.8870096449639	
16.14399211967408	-9.864780357552869	81.87616146122375	
-11.146270960637331	24.519993026424295	56.355144813771496	
0.38480869579228266	11.065103220205645	71.82608532084917	
10.483682987105766	-7.444779534102021	44.07645481407333	
15.116968859136113	-5.673077077050146	92.67736375861092	
-45.7198966248161	80.95241813928509	105.27317674196657	
-13.546736493379948	34.8463920679276	90.73465104872813	
4.08598824159167	-4.559805395599445	5.9322039376174605	
11.277281451097739	0.40066005558716394	84.79564460366086	
10.957160613904048	-4.106428586778288	56.709233319043726	
-24.50124553863887	58.33581586518465	128.76662193809742	
39.985280605240376	-53.81821649654493	3.0130575976708593	
18.16578305532473	-26.743905110314298	-10.826916792022756	
51.414968741609655	-28.576725226101725	185.84474227784935	
-4.453100697701452	10.144346752160523	18.836723455348153	
-5.656924972680221	11.387455026421893	17.138482720670385	
-24.940804075345106	53.84736615237766	85.61023241979586	
19.532281251870128	-10.51673872346742	56.08584728537939	
38.372279115234264	-32.8423450032921	63.204062327727414	
19.604352686654998	-27.741953441840675	-9.029542226248058	
5.6982149375814855	12.220312845456164	72.28256148579663	
20.64997652062138	-12.769648107494676	50.697445235471776	
-26.815091000208646	55.72128071044536	77.07361203884602	
32.25238871427134	-15.985489350629946	91.50259627442513	
-16.248273758624563	44.03066103885298	79.71717550344835	
-3.4198855673154767	21.65031860149181	58.61400901894165	
24.888158773800416	-15.044187544009768	53.593627971230525	
-5.633978198639016	51.9910532629258	147.49821796473915	
13.510454737039735	-1.649314640465145	50.30157945748797	
-15.832636398758115	43.08652372539593	75.47646885036454	
-11.379075229124544	40.07329891223252	81.74012046655173	
25.696627794803625	22.58440088603117	170.51502821882247	
-6.5568338190004924	55.568472188341865	146.14954143420468	
20.50737625170539	-9.134979275703854	49.6242882605521	
-43.024870161131346	85.62953604404998	98.14890389651707	
-13.023199245781507	26.879728926582867	32.46029731348974	
66.74811177505252	-89.31536832237121	-22.584862897830153	
22.529098988614646	-7.849883464147096	54.96144245665269	
-14.905116579654134	62.46997658304831	123.58429724282341	
45.779663812687936	-52.93941414197876	5.7577759884389526	
18.692889387277273	4.509262208360822	74.05531690833084	
53.23528063083601	-42.460422063048036	58.86202253929409	
5.229033414001682	4.284622041039301	27.768551032220486	
63.51243988526566	-83.06357120708829	-20.200722816926852	
52.901494751564535	-43.58746182516248	49.711690386192075	
8.807692476856744	1.880868579371942	31.864243676558402	
83.48094244554224	-72.48443250727425	61.64424156356461	
67.30050819220526	-86.07515946019855	-19.493546320744667	
5.18534153853387	-2.411641663915542	8.418384621280932	
-21.276145867669598	59.24540784989591	82.72201265053067	
-0.44688516417984003	26.41745708848272	60.774217842218285	
45.34180699056092	-23.684403156200844	64.47638877401074	
48.900260393186365	-23.77560696605758	72.23934112929642	
-7.44254419000027	25.793284259552138	39.49559504471588	
45.456660145656954	-23.60155841059101	62.29205831031631	
46.98039455367474	-24.083323285949056	62.877202982582446	
3.9084569209691775	23.83570413124298	62.13716776221153	
6.139611464304285	22.955401256004347	65.2524757265251	
52.306391525307994	-24.664170959641563	70.89696450218953	
60.01708616596893	-45.21724066101475	44.50809056520575	
-36.835324280708804	87.29067835545366	98.41920988043707	
38.71559631861922	16.363096542057203	121.99457075819777	
13.944822269606897	17.774249057575346	68.35779883693259	
-1.3207550901688554	14.411456976318302	26.06738288418987	
-13.121500541133214	55.005264220094055	81.9922227065807	
-15.489215005912618	48.70317309955544	64.16959458240227	
85.4230535739613	-58.645204370286336	65.71743581954962	
21.679161473545637	-4.996869845745854	36.210563934233555	
9.832519252475892	19.13279443225665	58.97383360183038	
14.948132822661938	24.203086619221907	79.67637504940072	
10.833111981685905	21.017652793983242	64.13262464432309	
16.64580894408647	14.936461344997003	63.90430395197211	
-32.562936839455034	87.64289943937345	103.22846662520834	
-31.09105014663231	81.7068349559658	94.4513782307482	
72.66649847471884	-66.46052933574147	19.048599001012235	
9.591029940746967	-2.18523699411768	14.593733595854653	
10.543456123054264	21.348334549375707	60.367011495319346	
8.67137585968068	25.60590762904777	64.65247519094949	
12.920524465953369	17.290331165098337	57.266784172022845	
6.871527726452378	25.116623877841324	60.13503963260585	
-13.664350725785352	49.19127620729918	65.25054197834358	
1.9129755462885358	28.888733842584312	57.33036187309021	
-6.428136524608492	26.153432442296726	36.10724463895511	
6.7757587234932455	9.39946580361351	30.105179997044505	
20.402355015230697	-27.498771481021485	-11.96534003034792	
-22.207395862434865	43.389825143042096	37.441050605075176	
7.441618944866509	-3.0597457365538254	7.705720795947009	
17.80808996139794	50.51829732930659	119.24017178225188	
77.36366386153153	-69.19119355018049	13.00490075349858	
16.4494756248652	0.38422355558564414	28.546436847774352	
46.830167657199226	-11.095273168669218	60.3884975503275	
46.91316824940495	-11.410744075960993	59.203230044048595	
9.2180308726806	24.406864572332452	56.66547032411033	
6.33808381983449	25.589052590262718	52.81847790686825	
5.451701969702274	27.424799361503407	53.52275683222127	
-37.14367211724717	91.12344171464231	90.23384154831089	
41.40780586040742	12.213559311757848	85.29959723139554	
3.5542461815297766	31.190668247130198	55.88960791508458	
11.72787861184812	25.779686593048346	59.57340008340104	
25.721372675557078	15.611560088757596	64.55773346622918	
13.940147703882387	13.446946531767223	42.96103871911001	
50.241473587217996	-12.666113786378435	54.79738252352916	
10.202088478793385	5.4740136718847365	23.70159051646332	
23.66545468703408	-25.82952099470433	-5.501283272765326	
5.816000726464565	30.366604118139296	56.15320306452081	
46.071118556114	-8.83170766145159	54.1366210220442	
8.604682951627902	7.339740877614528	23.81526549004475	
1.461970192851289	33.299056433375306	53.47470555088378	
33.26515280730487	4.004857488470395	53.50657364182096	
48.86469604014056	23.368642747519566	105.22005456601183	
-15.011584286490328	54.636413280543785	61.48567261061661	
15.130629901625811	12.863015625291224	39.279084800903874	
1.2570186642529684	13.409795493811895	20.877198697638224	
60.07277733960083	-8.255842310673295	63.705859154140306	
36.22235698564399	5.064951191360394	51.99795053385947	
3.76317073310264	16.637147174430307	28.02561188628783	
-35.43946581780355	92.30740705059291	85.76475192004459	
-8.683262891753067	20.656444292531162	18.28083705611445	
22.258372920425085	34.55843398122065	73.69969710708651	
52.11002345771548	17.789889361044207	85.41611365936163	
27.734822878613297	-12.663862806407169	14.894360639348392	
30.197962708341773	18.496098111109454	60.01810811640414	
-32.012772247102355	94.51499705205703	91.39506626107548	
-36.87875412243184	94.06945184294638	85.09647717312374	
10.458963571401783	34.2374787078489	58.282847190918524	
16.528171020199974	67.90885486205607	110.66802970963717	
7.1342686922750165	14.94416486662394	28.148619744707766	
7.479416374390315	12.715706580394617	25.534662225325192	
6.011219699420809	121.110877074784	169.40719721924341	
51.93830545712398	16.261234070027633	80.28491496577453	
16.64676635892862	38.40334440893899	70.085364761938	
3.877725079176592	73.57933108081231	102.53436534472807	
-28.148270751633667	89.3312156274613	87.54520927101666	
38.22540894235581	2.4076707495853977	45.564296691357065	
61.07929388669648	23.12285387473448	98.02095774658663	
35.80858556436841	-4.070300959367058	34.01144132663966	
33.61715401691743	-23.942025357373918	4.9121662288374575	
67.30051213036008	-9.26360092841513	60.40935006062951	
6.70821864960073	14.570443407202609	25.97074257738312	
23.462959382728005	37.970205993350355	73.83909363051183	
70.67112874575918	-80.91047661790348	-30.252944848373318	
56.20834782883292	27.834688663278826	93.22296038970472	
29.97832553602069	20.706562909802237	56.794370752387	
34.23841489314695	0.7860493034589136	35.74707254607805	
22.18273591872148	14.288272573506312	40.02355005930602	
10.827950131014727	10.988410295999591	24.184847977342535	
15.377873374369008	18.54293869921874	37.89460299675062	
-6.662390659119962	61.219240188523706	69.26112984520111	
16.3194846595937	19.947408899219766	40.33971357809057	
15.396540112811806	18.136732603395718	37.05336099641924	
19.34587470980421	15.606096622046365	37.63958069046285	
36.734286522676165	8.017504120716689	44.656461052391336	
26.925563723811457	9.442913598625148	36.64904282175219	
28.77941546342596	34.10136712524492	68.35738476263575	
-14.49768503606198	92.49946573754602	98.45915254168425	
105.13708931954187	38.50041794185043	139.11026335162455	
1.4721122288393425	58.89369509072697	70.43884187858596	
107.3259220314438	38.989150049405026	138.95760065659067	
57.65400109976493	38.85609587534545	95.59415459543457	
19.54869517330514	29.35431084405058	51.1746584402294	
4.505042910800277	18.427932924444903	25.09229052027523	
7.439006376767851	29.045909623708503	39.82541335964554	
5.154358890732476	-2.662787174869832	1.2468633737407717	
3.942605269023392	38.62820104187873	47.64447056382645	
50.09483415325711	27.430071917299927	73.09807562653258	
21.285125689602676	-22.538327551423286	-8.22010923258937	
26.545545268537182	27.612212909016588	53.43655224050079	
8.233075515662476	14.849492244855632	23.72102712341081	
-7.030692694866245	60.133972026857705	62.52262741300967	
16.026494288967722	28.14538648460255	44.34673559749115	
103.26328419142449	-15.950957514559274	63.1719946592994	
30.52827398217909	9.785828317996273	34.81407164650866	
56.7504737005848	26.31358693663695	73.26802646424254	
13.549234503480342	-2.4052751001406767	7.6266239659946935	
30.04225908598663	12.162310660854468	35.60355777509591	
58.160417866474525	32.745676354597485	78.43040654911913	
72.91890104777642	-15.35329437218501	36.83696811337334	
28.709592296477126	36.573702083054194	60.46820333483805	
10.75256271331827	1.8377676244383	9.810904830202256	
15.635865411293379	3.957205639393904	15.618590260266174	
20.8527753607604	21.113584063209437	37.67885808680479	
26.06427305705213	42.200608719738334	63.50533256023002	
0.913756456653578	53.140891201880486	57.343476412715816	
42.39891978793284	-1.098565069560671	28.35854024364736	
15.993822482837452	2.665790279544608	13.888221996486426	
55.51907861485231	48.66443703509406	88.78918897739652	
58.228069854907524	26.779751254546902	67.54098481104417	
39.693878150757314	-20.428521425538644	5.369863459724474	
15.682643015309496	3.664274354441179	14.328464156720566	
10.652926210746628	16.415576601017932	24.201653422866684	
137.103352462172	-64.28848763434485	24.358088783403122	
65.89680230708034	45.18352462062427	90.95540470875693	
136.54400745439375	-64.16241578414832	23.4005005341527	
134.04519616855674	-68.67363804825267	16.512357796815476	
65.42007816218272	33.25266626787492	77.01825576702915	
41.653714760345935	14.656650039504328	41.56562913136577	
25.257136404437727	49.365132656504656	66.00598269500269	
14.930656456705862	25.773441988945905	35.4702438137021	
23.93540020107217	30.67166546182403	45.660770765475405	
27.90996813815387	-20.145395975091038	-3.165199092182995	
26.93866112912403	73.82194642865637	90.75326813808444	
137.5311738880574	-62.2825817113599	21.0644815124908	
33.646767576823436	-13.469895107767156	6.862204284489381	
28.02701604692462	-9.944938696742573	6.8405748302838125	
9.346595223854449	28.18090031879972	33.68677064287622	
62.90095726250724	49.28010124817793	85.97015464516468	
28.04029643232301	30.00127136297565	46.29197485081335	
100.53924605824643	16.89161244620036	75.03070475779491	
58.65114612523149	14.921985879941367	48.634436531899	
31.9526935202197	41.49190512817282	59.21628494735573	
8.89121014315233	26.65488779876086	31.144119095981985	
17.963613887084577	25.297013962748345	34.97154067781101	
18.21518954631728	25.84054706520056	34.886840033715906	
16.550891452365935	24.170238335361077	32.359050429802046	
65.08156662899385	37.5351614268727	71.68469514468852	
121.12819733693367	-24.360892492842407	41.62877332507916	
96.0914933850192	20.602229032907008	70.95316333085101	
120.94671039307413	-19.73182152318483	45.497180838568895	
39.13721721098816	9.377786341252728	29.7125769425765	
42.398296288898	20.695878568051416	42.12799075980708	
16.341316981525214	33.14734695595424	40.09063174495792	
95.80647880500715	22.874213468065125	71.65041346220201	
15.983379826861821	33.35196000516263	39.94395731219478	
-0.5343523233446525	29.85358168780515	27.95123253149208	
7.171933612739211	25.8989457054053	28.139570786725503	
34.60268013782855	-15.68902992215681	2.976974503817489	
21.445339554725525	22.821926455818474	32.5189795443689	
33.974792673945366	-17.901021854633726	0.12506447654354058	
72.19156811307703	3.313425819244618	38.678453026392376	
2.6339561687746627	57.0442179467311	54.21283864336581	
8.286770717308096	60.800371699024765	60.127236071893606	
67.51637777771039	43.68243793862174	72.60475688049006	
87.90135218967097	-6.014403126566791	36.39746539612809	
-2.9325630180181026	60.85405063000261	54.33299772588179	
104.13496557352912	46.578896523056265	91.43529601176	
98.85218812115089	50.19574368266942	91.0651063292338	
74.82259433790954	-34.31675314807056	3.0231456761885864	
34.92516445545332	-17.56413195655453	0.006730100095415616	
130.6885621310905	-19.415986873489334	41.5562289991613	
39.203261143723736	-17.092086497532577	2.253550683570822	
80.0043023607272	3.3342310026060775	38.77492057505489	
57.83484184981781	42.576658506436765	64.07594675871857	
146.27974166658905	-57.59647803797965	12.776063127874064	
34.15753976925351	-18.970712444203386	-2.0082388560036732	
-1.3693555448555963	27.345208194389024	23.81023383512742	
88.17809662056966	-4.542539539549834	34.22725055703281	
0.9937382347207975	61.444541543115015	55.15831627001036	
76.79670950833953	0.6039297897400056	33.76198957491276	
70.11236471218089	37.77027617011943	63.96305939951827	
122.03343760294611	-18.89101853188889	35.66706818852998	
2.928243837436195	31.121203516921263	28.846665047882773	
67.56129751038763	-6.951045948527598	22.60821154000217	
86.94111655125101	-27.778008796165757	12.187731815397264	
71.92144644940528	-32.31234937954451	1.6744675474037025	
128.8943581535725	-16.15198740276112	39.82331592776489	
108.70970008109002	48.790158245487966	88.401192878297	
119.82341500365969	-11.074738619822131	38.759318316229304	
64.88997926922745	52.53609307858606	72.00765328809081	
75.75458787158699	2.1769226687872165	31.57863220482307	
26.878329096962783	83.14003256247321	82.3214268957633	
70.63868730551566	42.97850307944906	64.60422270169141	
88.75787500520416	-1.3906682779960757	32.979110601863184	
92.62875464077743	12.549972138908078	46.214147631151995	
58.425097741888315	25.787827375548982	44.364297701507454	
20.104701381846965	36.26741190746817	38.18414024741174	
105.59977177257201	48.38494517837849	79.30420647690133	
116.94816991852885	44.804616770348574	79.96366353542788	
3.389566217670327	27.991943737024638	24.843663046978683	
115.83695957652701	48.56834648477336	82.67912554846475	
22.745872093128483	84.94920731578992	79.82071179141357	
68.73849831641215	-30.448891487295366	-1.055783033560284	
127.0743606424424	-18.91244958893736	29.207810017116735	
16.808911991698377	4.928585608514037	9.957704954673124	
5.306666013827981	59.966324109735936	51.717454415401505	
70.21563243726742	-31.204222187926778	-2.031849589158792	
123.23266219515911	-6.687895660722694	35.91870330976115	
93.63370739026595	15.492549543300116	43.98175694068368	
54.739841300938885	29.78670569849699	42.77281342720319	
16.358833673986503	28.748509272857145	29.125204048050968	
87.17863220405594	-22.063145721012635	10.146141669595822	
72.72796489144459	-5.897284502457327	18.604746853440513	
1.038534948658944	29.1615732905767	24.017222903648396	
23.540999584755557	34.80191032469788	35.45317634412653	
77.01261361940485	27.27152671946888	45.38401102403435	
23.924837131551822	20.04166134871093	23.36385750082952	
23.487438999097098	6.933819723967138	12.31647216417888	
75.32206326996003	25.981130442682268	42.39243884726398	
5.428608361323653	33.61128559954666	28.322221949822723	
2.426320664231675	32.58599533508001	26.63843743700012	
33.48785609578883	-2.0108931090179034	7.606633255195499	
41.41122796518052	-13.788839497892072	0.4676296524522013	
64.96732483708092	95.95780285152915	93.00463640409701	
39.86555758395502	40.74197463101931	42.368108418266004	
39.49033970458215	27.076825338127115	31.426790654987105	
25.766827924041856	20.215161530249006	22.04540075234239	
44.14901787929343	-13.415866660382942	0.6332209933506662	
18.32156367255749	-2.8100343349446	2.2973153063779863	
8.974688921449088	30.79668604636368	25.80547545424064	
-9.311504781890559	51.35038895367857	37.081749309209265	
93.3539409051534	14.637877302224927	33.33008530388214	
92.77021709775399	13.350016880054524	31.60761540273582	
24.323349662320126	32.10707670164387	29.454035497343813	
26.198200467064698	18.208636517809722	19.376060599563786	
27.41130182305218	-14.62933604292479	-5.035519528719289	
91.87431718749505	13.528794497735925	28.961236396835062	
81.76312530235293	29.35343477798149	38.14115736436824	
23.285339670169314	36.87997729510636	31.929625598116196	
74.90490243051555	32.703662867677316	38.8531405393239	
73.1468895674363	99.5193963203374	87.76254008006045	
92.84989076191395	-30.539912678015277	-4.507439455366219	
-6.260242863261631	48.03864927627245	34.037078403860995	
1.309271020063194	34.49288052339	25.53630563838465	
31.26267848186176	20.1072252271175	20.566232018641013	
22.379733545158025	37.70325421482242	31.364358316351666	
44.954202123220746	-8.522006457954452	1.7304527274096335	
22.21417122192357	23.100142752673523	20.24581411237471	
36.04677444863593	17.117120495085448	18.062412531688498	
93.99765883068133	-30.641209767064947	-6.925139919556971	
92.61605097264778	17.244539179261583	26.79108089632866	
-1.5578310925854029	28.905074174337997	20.330573444539716	
-8.511071130585828	47.426553126115024	32.41360809815001	
40.77441359826838	29.26512993926464	26.632783378371645	
33.827384524300506	-2.1201200083707765	3.476159405260163	
118.94448150143604	-39.983779801088644	-10.749232928299657	
91.64595310184161	-36.162509593908894	-12.439798188686261	
71.68305711192926	37.462684057959834	36.29530601615052	
94.29097621278356	11.72603052503941	21.279577777507594	
5.924436157880437	-0.16121371814563457	0.7015889951008389	
7.212939012852062	32.406789856525755	23.600145447192574	
24.670594701807914	-17.339486064494672	-8.816219699706476	
36.14258541826247	17.312858544763827	16.764674722623695	
6.898368788993179	-0.989063494161567	0.1734336374254129	
90.2068628475157	25.76522549487847	28.799948977642607	
93.48192712945898	12.401698810896457	19.711722183614352	
5.022392555451206	33.21108141594206	23.424463665421385	
108.58642822645406	47.58771769835375	44.811961002990174	
73.90164154311374	-30.785423841528427	-12.98082419126433	
11.450395499017269	56.96845353929026	39.784635348838385	
13.921553830114402	50.205731116888515	35.37067267974248	
5.564703353108779	33.4351707192689	22.978887905537857	
55.628813772245195	-39.025237886749544	-21.001296603453532	
44.423486958223954	-4.610101608129925	0.2571117235463616	
11.207733452285078	31.343678877316187	21.370862171904555	
102.74376131691562	29.99080769861232	26.459848480632935	
-8.234045890623833	55.607161813069965	35.67436471182991	
21.568604050452834	34.28411146276895	23.520872371381575	
24.411032710662102	22.355548381818757	15.81237100259274	
31.732876180446564	-16.67888045492381	-9.084394406583662	
43.514652586099366	-7.07390015928228	-2.7183652985187012	
-6.2970981654623674	35.56882815584009	22.39117480619214	
4.859564798887998	-1.2126602162712599	-0.5826122761803411	
18.70652612093398	43.05887091070266	27.906878430744417	
22.082584287108237	42.00359485577597	26.973994898589428	
92.94611974221645	31.46661438662234	22.180164768978184	
-5.870035634794408	34.78935111685604	21.577841440748152	
-8.820208615468724	53.407286969096056	32.79685846146538	
54.66037462775065	9.820291383802596	6.347961598214005	
51.41357645622517	34.13162598071104	20.741957025648578	
6.172162134052428	-0.28442800556747144	-0.18944687678440503	
6.172167196145614	-0.28396796813365	-0.18997135153252623	
29.070598260830547	-16.584464942927138	-10.20397814246811	
5.112818245133365	-2.350688239073219	-1.4505129132622532	
50.19688621687689	34.93899990391711	20.92914122274614	
51.37249131656462	55.86485788857811	33.39913429568959	
1.4180038208557513	56.148590354001726	33.924758408961914	
20.527567895081464	41.86686821342116	25.005159492741583	
7.478552789544086	60.26960694004023	36.23749692824844	
25.952151743116342	-17.526271568866626	-10.993604466841887	
61.59307038417213	82.54925351131216	48.011848182208105	
78.27298778869478	12.117899189528199	5.031075877843244	
49.67715290256386	-43.73442495300978	-27.400753902733044	
48.102310672719646	2.509002192320932	-0.42287363775251136	
17.12155526682137	53.66455101665371	30.681920252139967	
27.679533894689047	-17.33126713341247	-11.363045630397393	
47.20672089513117	2.5386866787809708	-0.7772771992148535	
-8.478840601459554	55.52206914987549	32.08280614223647	
26.278700856727554	-14.629909505379253	-10.190502701209532	
26.560195623350467	17.495543185125467	7.558151126542057	
48.90480471440399	2.037484403235236	-3.0737965819073105	
52.744253654549865	7.902986117341594	-0.17595822815198425	
-4.559788411739674	55.509731257471756	31.151029468957255	
-1.8254808605932535	33.9329816849424	18.95383438925162	
-23.913045972430456	46.94659629614934	28.079379261474003	
-16.371356764134163	52.41126679867416	30.425204972083797	
17.184113621175083	-1.1893273497868533	-2.21570278334569	
79.70684108715975	38.70755025575231	13.861505293682196	
2.4796215275934337	63.327590183437565	34.48333959898743	
57.5838275807053	-17.19562217864727	-15.540312143010352	
5.060440632998954	23.37758289505695	12.045699486163254	
76.52061749432764	30.83784566292967	7.5994563808061555	
41.5678381061601	-6.716027716441725	-8.680112128983492	
1.158934935399436	57.268893034835756	30.04709821212178	
-18.83802769157	49.99830055819475	28.763065275415137	
44.98679657541628	-2.803917484152267	-7.686205950393813	
55.28485096628484	57.6119032453563	21.845445141976995	
99.79522638218326	98.15011395722958	35.91968509099702	
141.93765833372765	15.834088322572564	-13.682257294806272	
144.14612574587855	10.976201051973622	-17.007342373649088	
-20.766376382338557	48.7661647169546	28.01545458100707	
79.6091968523821	35.748721349669545	5.036381294698882	
24.49220576292166	28.948941361336065	10.587433632889182	
60.10349584096277	-8.697526359054363	-14.267637555090342	
54.00341402436019	61.15580595123445	21.840305958309543	
84.02823483928263	34.951087008665105	3.5035452648056427	
23.692403936255225	42.685238712400185	17.437327508899962	
78.78640906534258	34.3898847068201	4.0132786448731155	
78.44412587934404	42.072108626671294	7.915191688294857	
-7.747897258235347	20.15267868690013	11.371210446184568	
-15.24001068253182	91.4375268892305	47.75202800971068	
-12.783886810036407	51.698356067269714	27.533599884587204	
16.84829319946114	-5.8057043267204245	-6.198982944111653	
53.65112995496288	3.9237535615915258	-9.08015487535804	
61.70153511678073	19.696645717889357	-3.2549281733798217	
24.387975425779462	27.014600859263663	7.777242002961241	
15.80110382087975	43.75282305601111	17.36029067825766	
78.29551532199055	99.77147753839515	30.230987280657057	
25.104867452853647	19.0650010430909	3.487835543311238	
76.47357926276798	39.27420854377898	1.632904381648793	
8.505285015729296	25.29464326501893	9.883119092562499	
30.53448715022932	-14.176387493729846	-13.712331057914373	
32.38076409846947	20.736039978965557	1.7524732668347949	
1.8578213089583304	65.07774564040076	29.011730944630393	
46.86016011112992	-34.69552189746214	-27.12844803920657	
53.87570281800313	-9.550671331554618	-17.582364773210642	
34.58839539553842	-2.693674517513793	-9.745917850365949	
24.029261756237883	43.873569161317185	13.809629097332591	
3.4175259577404575	62.138800166518394	27.013128374028376	
7.505085617459391	24.55219120241545	9.127690024816074	
11.871441141288528	14.551072580211514	3.456941053502795	
68.05268270884035	47.59734800547759	3.6299913023888393	
72.8616323796136	46.06142406501382	1.0755245978951815	
48.22452767448918	17.012047709527593	-5.326574856876866	
25.728396086143274	25.322073326827034	4.034346557758602	
13.701670580440014	-6.770858008404115	-6.689833549073014	
73.38864565960715	42.32079604120676	-2.2138672730828324	
145.56052559625164	2.668267334767174	-39.4280444601497	
-0.611123492641466	82.49102154573951	35.60039270251738	
44.04454085652683	84.30801564491838	23.747099425693886	
29.639381005317397	-9.682170658996714	-12.675598713885943	
41.654327282627	-36.45671432786547	-27.48900852549438	
73.60309537808133	41.079536172324616	-4.052398870685068	
69.32648814717794	48.490479536740864	0.2687996844870131	
69.69099412897687	47.58554907924915	-0.38305889453067377	
48.64798871685238	16.5214095726272	-7.497650538110438	
3.0175319062586925	81.26464463021851	32.88810300126767	
62.26500782089419	85.74859434569669	16.813936382735037	
-17.321310127259732	51.77380494318757	26.653589487147244	
71.54690710049098	40.589103356280646	-5.473247009489991	
-4.992076596449932	63.36407450738238	27.37312407452831	
23.94206829424165	32.804805037712974	5.74761361915878	
41.523626759049414	-33.874134609676226	-26.960932051869413	
26.202362942677834	23.218004683544994	0.5839717876946763	
31.196648459632744	49.31847830805409	8.90052524500102	
19.95347565941065	34.950193917242615	6.805531993165943	
62.430798298129744	54.25401490683972	-0.5790796642255993	
31.269211832923958	49.05228667253563	8.008553542726158	
-16.538772407978836	51.89896093160493	25.64317214873545	
43.48621627952382	86.91527914527477	17.310885907277836	
18.241541490767	-3.1564631336910676	-7.736617165505776	
7.995183199516572	6.21929440167254	-0.5838210530866392	
17.1210873664524	-5.893688181927478	-8.455387287766948	
78.24746823471737	5.210300430858445	-26.726687943041846	
47.70125967567757	39.744294116782484	-2.766518587386991	
16.248799755797403	47.96427579223598	11.696614126818021	
79.6780412157168	10.523754281063399	-26.423874841752525	
5.396987719628842	26.025954240922996	7.41222473725195	
79.97426619096936	5.309608942347958	-28.833412132325765	
52.95293431756694	-6.892417911105718	-22.99319114419557	
38.80037055404909	-0.23440456905863588	-15.185104888593823	
47.04802461642293	40.30103802574347	-3.9239821861748085	
23.12070673161872	28.220137104272133	1.019986278699704	
106.47366306608012	27.335520806080297	-32.206624482234915	
75.56388848508652	7.543855349163202	-27.14463193757569	
29.671768012691842	203.0247592994207	59.64587356692424	
25.096264923542627	25.385842506567943	-1.4691011634098747	
40.874120519786494	-12.574352922630082	-21.04972642487439	
43.332739365634964	-13.431091487867777	-22.36932689975965	
8.523886812875087	45.38254966842728	12.180088014640011	
83.91477475026798	53.21987793219497	-16.967494166159387	
76.98880247403746	12.600308481353164	-27.89419086326093	
80.89469480606355	14.227737971281437	-29.23460934323873	
3.6985122320077592	24.03091314401798	6.508450340082615	
42.083977476482	45.87941665225363	-2.442922603023469	
103.43823438307533	23.05894043966526	-36.564137342606465	
47.435655902654446	47.576801671203384	-4.581611200085298	
74.95645168484596	4.801288909334192	-30.77104367649355	
41.391429218454505	-8.737166871801318	-20.866303034883018	
83.37409876978293	62.75980328853277	-16.14351550086484	
40.702902947532536	46.47230347624321	-2.8540024416542167	
28.679927742456123	51.727316119308036	3.9355086804364663	
78.44390226075542	8.779329826465991	-32.39910718323936	
23.201271688632346	37.83313861301201	1.468425536479891	
24.080231472266174	23.59305648753147	-3.550383843576886	
28.12420082887278	31.321868904191053	-3.132838148431052	
30.337225934848366	56.85752887509636	3.81850620425045	
90.712453036721	54.9702428816493	-24.815408750307608	
91.53916032934015	46.17065350274217	-27.966944250447206	
35.399203156518865	123.34505272188431	21.04849043862687	
120.9951379616171	-45.76995571335278	-71.29990073464928	
88.01174844343538	55.80990348095551	-25.52739503469561	
-20.946579565852012	40.74076553311144	22.224322023825632	
2.441144623699914	20.907057126691605	4.942701364234985	
2.418882508662967	20.706353371101876	4.89125100937701	
85.34529714045526	49.952325330316825	-27.209200371957603	
22.263886250350403	39.39058338215351	0.40179044180009055	
24.002274456134693	40.761688694047564	-0.12088763875130114	
77.86079470078803	18.344708656345045	-33.71012886632439	
27.19344218742914	93.54014488024441	12.65898319536788	
-0.15373032860483052	47.04114715513719	12.909021333805722	
22.601209734016457	23.957823212060024	-5.745948462010555	
-18.994070212162132	160.96515903818593	52.451942699731426	
92.4585158304321	60.6856484037288	-34.12614826592807	
76.80954248249567	18.407414913066365	-36.91210937951536	
97.33723282426463	61.4816377332678	-36.97123323863671	
12.416885519445167	3.837499374734552	-5.7626407934796635	
88.8913635298587	56.963951711648114	-33.82935680099096	
82.3152500014803	52.76687496301187	-31.318734773298726	
22.725471982610678	100.00351021624982	13.304889541563256	
9.50751437083307	104.8963359083323	21.06114055514005	
20.1587682096515	37.48959620186572	-1.8869202389385256	
23.343951160348084	42.30339300986441	-2.8818870270516435	
49.75305816119788	-6.705833978542642	-29.99201020856887	
-22.327357894110808	163.59328310181272	51.68480063517231	
24.93505764116554	94.88916802682473	7.861810646888129	
81.03301411654124	52.233051248467895	-35.6096020959269	
19.248188390572597	40.0161165942474	-2.298542913070622	
25.247131873639816	42.32809889526288	-5.380536628408481	
5.553702089078423	48.86444361367032	7.685929500096044	
-12.361164821534526	79.59580899773461	25.160975184328638	
9.787792346942775	107.59058997042331	18.029737386554547	
85.83253519054308	40.47466135009802	-42.69311179400068	
30.869021775162324	45.59257387486582	-8.887446416698753	
4.454920731884702	-2.5958522614994073	-3.273867426120458	
51.52211394600634	-6.020597128846378	-32.686314448380145	
86.45100999960377	39.53150257055275	-44.17118455632548	
5.169933489943366	0.47388827206263695	-3.109910362114107	
-4.773260916096106	46.76653732169892	12.66428330071338	
35.55488895297085	99.05766217332557	-1.93954795494097	
5.1838760759640765	-0.4711409274688802	-3.376813849893255	
25.715441712315663	38.47253800395839	-8.671706144102652	
35.40170747924638	45.31321402089083	-13.804704258793382	
7.843211736761988	107.3647510612819	15.86711145024364	
4.336700650643793	23.947342028036818	1.8636934444786528	
35.97477412757042	4.123401307810071	-22.420379164932715	
36.718278085279735	-14.762844151257001	-26.56549546439339	
19.11638884762712	127.91612376084046	11.7592343250766	
79.95119921018745	48.01888023460967	-43.93307292584732	
14.760886886429923	-1.7021884294831966	-10.059502792961283	
20.840742949729343	105.95155742534985	5.224361316035889	
64.56778444548415	99.73794411950414	-25.440473582333528	
31.38906109480646	-18.936146549490708	-24.35957373263695	
32.25041470946544	97.24295173619906	-4.807725395496826	
22.865585989947	41.80823453253598	-8.217634166825185	
63.86428126519052	100.55635443538756	-26.112700007026305	
35.3178767911717	42.069095112979305	-16.905178004804462	
55.90091723126115	20.626870200970483	-34.72552730754415	
19.241239786139566	107.49150329108708	4.424014243279965	
32.355536069433754	42.66548545840888	-15.487894009522035	
34.92196127303319	48.180138469874386	-16.41723590514906	
12.537221136912205	3.5373389295153004	-8.215979597771156	
39.85833290662517	-14.691092941631203	-30.22943835321211	
12.224334311484355	25.022157677385255	-4.689278070420877	
36.18762692114583	-18.335727824460918	-28.28694245744146	
-5.454068235570334	40.027625501428936	9.918711911453306	
5.858800588623179	104.04590752143956	11.301944710932366	
66.01461756018587	60.3519834288221	-38.481382277829425	
7.229561403900485	25.126039307260385	-1.5562667207421153	
12.102796261967987	43.36274485379158	-2.4313921580890345	
63.25724077591762	100.57934449335401	-31.216496199847327	
27.625275030938973	103.06290915293528	-5.399552869066847	
59.83951340860891	86.80265778025408	-31.415785846504214	
15.793717752749869	95.97124816318843	1.658209398707035	
53.14088946301104	-3.7205612462272275	-39.34432417679167	
54.06390524923666	3.7223703866200024	-39.286799115400214	
36.77761408274637	83.36664020433156	-15.96696543878218	
-10.855520754253174	80.47873018258541	18.70230204539102	
12.3793630517768	99.75435519728693	4.112018345735704	
31.113145435376236	35.276193527484715	-18.393544461203643	
33.58211351793989	86.24936606305786	-14.156958688640984	
60.31717297706681	95.44498060307973	-33.05941275278984	
20.39273522430799	98.57646926431761	-2.880954445845555	
14.424069083945101	46.84147844659612	-4.947373001553498	
25.621738568211573	101.65793366713069	-6.558683564198689	
28.886811116989346	43.03786543906844	-16.339537396085955	
34.50123652586352	-15.419363465837717	-27.82063890818678	
28.78485019639745	-7.071793153160223	-22.550693844193123	
18.43453479918377	48.44733575103534	-8.105180496801335	
11.344850008514712	4.414504247280262	-8.142447865642293	
10.491770719175406	22.399802204786184	-5.745134514712986	
10.456662284484327	44.4050849354269	-3.3928631763241857	
18.53424465928554	102.38964581601267	-4.8514584431561145	
11.22347641531121	4.08593514751965	-8.519833299882016	
-2.0107709372831333	132.20477749670445	14.184304195486193	
6.845662165978021	138.7012025183906	7.676737735927036	
53.693542752148424	91.12819422012467	-34.83371677165596	
-4.871144096213357	132.54485280109344	15.277896451129953	
14.442702754823836	23.901961695948977	-9.741988763731621	
17.339479778179072	47.40828362670056	-10.166495661642987	
16.30221491467527	46.02825563671388	-9.65859414021019	
78.58760979560816	171.86944058023758	-53.69218204063323	
48.226180672117565	-8.729945736259038	-40.93574156966688	
65.8541760783658	173.00890854765447	-43.295543366526125	
17.520935533418143	22.574127756415457	-14.059356410175678	
48.84541589315276	-7.355828626068182	-42.670036057435055	
19.800007714931436	40.69254231534413	-15.324603474611735	
-6.81770521676715	23.78827855107383	7.035907162512001	
13.961828824134203	46.661082794409936	-10.624402070124441	
63.49246386476399	57.0561199571862	-54.3847072232136	
13.778074937337081	41.757871731472896	-10.930461089932917	
47.21550206608469	2.929932965171848	-42.28758467300336	
23.65705385146449	-10.091041067091384	-21.624504942426515	
12.945213063057023	42.092495339277164	-10.661776354085912	
-13.00053605620453	28.264785750533058	12.425540766183103	
49.922455980552066	-4.861235387490601	-45.81758906214935	
15.233788522618955	44.56760948597098	-13.58608939500533	
34.56462311789158	-36.495255944442846	-32.41069644868404	
5.8366092108765075	25.689790097609635	-5.631491673511631	
64.22059571737404	55.6689200352552	-61.54159479490547	
46.28581978803425	-4.604143311379259	-44.2280456870733	
41.190906745511576	47.600940372715755	-40.08277381979691	
41.31532381983219	42.30719709998969	-40.42852770159116	
-51.78394436043325	142.75814266245146	47.901294606517936	
-19.028860801440626	70.58795916643598	17.319982039677125	
21.444349472963594	59.695649624744	-21.651861761117438	
-23.992146614411503	341.2130463003815	16.757869911316476	
-40.19099676589366	343.432018942637	31.660760396528627	
40.35966915776976	41.29715733667501	-40.39762033969808	
58.158236330099015	49.10485618291421	-58.14794303893605	
-42.05071052070973	335.8991695944116	33.1062098117045	
