-16.137469406514175	28.770632720010816	-12.491729540312969	
-5.281278978474585	13.69035147325619	-38.19482712226543	
25.55592470433531	-37.64017492555918	-42.62515328872358	
4.482529778217933	4.060866369725337	-133.0183495162251	
-57.67160777433677	99.6943291049842	-126.71118525295918	
-9.28306518066184	15.413394670086532	-9.972712031728076	
11.990988298215639	-17.086836613397193	-41.661251425056165	
26.32620925585751	-40.25775847109836	-43.621167421569645	
-10.032795288182912	15.487043028242415	-1.4751812791795214	
-21.759898141449746	32.64961078017447	-7.182425827958448	
-5.603754183267388	0.566557425324256	-132.50634483135116	
-9.680336358763036	5.983772015880496	-133.74487650966626	
-25.355290050084477	33.77143548583357	-61.326302731094195	
12.932837670384044	-21.72173832092687	-37.80083418414318	
7.2437890215749965	-13.975229528591816	-42.5979427332784	
-75.82515893781526	108.290108742885	-27.130182732014134	
-21.715753037102107	27.668085840910432	-31.631347647719135	
14.076700034477012	-24.745478281993137	-37.30399256781594	
24.220748425784578	-40.36602157034335	-44.11655645655495	
24.522195456402812	-40.95327662668367	-44.147788220280894	
-109.5056067039966	146.8298292644537	-35.451799508542706	
-18.988687622725283	18.01544948442649	-36.85963459152601	
-77.48938030650605	99.79766929584248	-21.73421360262869	
-112.17083714881736	142.75662536430042	-36.49386277172635	
-21.765662548173527	21.094338876351685	-35.93960236739841	
-118.86874434366311	148.36412647937823	-44.78035560848002	
-20.80730962277922	17.28525929877194	-33.53479269763074	
-29.709461514443316	22.2842596510501	-44.86410058103801	
-124.87643116901286	136.61098110999478	-52.20694684968175	
-133.7191456440512	165.47338570114965	2.664837908900735	
-7.949019699535701	2.069577966833474	-21.014920520061455	
-8.18684003990246	2.119945990065399	-21.588399192450368	
-27.574779380905962	30.433111202455432	-7.142552746102844	
-26.422423350093617	27.254730460825375	-11.346893172997799	
-16.548249220079082	7.601892499341675	-31.87543892398151	
-24.652986323279745	28.564858684862905	-1.557330667521272	
-31.9889110159594	20.61008659201631	-44.58525791319149	
-19.680575870898277	10.152673877271338	-33.11909628854332	
-31.817858323755985	20.90145976012502	-41.6591223539694	
-41.29373132719767	6.418264522327084	-101.50356284160623	
-8.138049107358052	9.12730008577325	-0.6806567644513979	
-20.203118748376237	9.686390533668582	-31.48091288061213	
-134.35280050529227	132.75959984944456	-48.193465447813196	
-36.086788800337615	22.351147204680952	-42.591810462440876	
-73.56004323022755	20.662988026951595	-138.27137271819626	
-46.68375518240554	5.996707292624254	-102.86540861450283	
7.1282264700573155	-24.35818063542661	-36.14999289864537	
-33.53013397320219	15.316592020762885	-47.007020674258314	
-27.17515190881736	22.363602559135323	-16.559900953968246	
-36.42019249617729	19.84141994354827	-43.490635086944266	
-37.34204542460468	28.430213467828718	-27.110760951359424	
-19.987393591320203	5.500955485613231	-33.85554683021711	
-28.313401700048214	29.497552905826158	-2.810989717087704	
-27.75833366954805	19.470193580304237	-21.101628744564792	
-80.87539434752102	44.93904307871663	-84.51669624799382	
-20.81814359775393	5.484467445936255	-32.23102661822313	
-36.31141973890559	17.973740733199353	-38.87221787045369	
-43.38565324905896	16.91540131941668	-54.16267263237688	
-135.94843141103155	113.87657286503784	-52.125250580661984	
-37.93859274467522	19.06541409528657	-38.19359509373435	
-53.05671087365709	10.790587315434793	-81.50247939775255	
-29.702454573584067	26.686478340327543	-7.2588466317975255	
47.909644200720436	-121.22279324657637	-130.57806555953564	
-29.404470525922367	19.75608084103758	-18.472717283873408	
-37.59107762531133	13.91218511170837	-43.575074981595705	
30.05772779525974	-71.04135937895572	-70.48750785265644	
-50.23042379161035	51.649024022181266	3.8620919890631247	
-23.772494150137188	9.060813268257291	-23.64826805619374	
-71.89619449428628	15.435203848236874	-90.77539219784217	
10.54058146545328	-30.687456382936066	-33.38469888283873	
-78.85578261737385	33.3230012331148	-68.89977785363126	
-11.235509391233299	-0.6951251826252192	-18.619690930105413	
-73.97681174518588	23.9031723324922	-74.45135802651181	
-106.31203807056654	91.89143873784984	-14.257683589810215	
-24.316451992743016	7.706246260818596	-23.860361127475404	
-49.82293530782924	49.57054052829562	5.173244317599411	
-41.12026314850508	22.40269521343891	-23.966909097926543	
-49.2662080199534	54.73564550809711	14.306062113166519	
-29.467253272398885	18.951260845679972	-11.969012840578397	
-114.2048895328781	93.916606388789	-14.677529370926438	
-72.40366544376064	20.506650999560996	-67.0755334073072	
-52.80658389324111	48.61250946173859	1.317219028861589	
-26.681311970136864	21.15422886762859	-3.4393532512596408	
-32.69165640009223	25.149584555451025	-4.026034893310213	
-90.62523965723068	-14.626203882434659	-122.28303197917097	
-79.81779864074191	15.857455661862968	-67.29269252521809	
12.949179685972155	-33.046656107484914	-29.325182816814056	
-54.2252577999808	59.68162683316203	20.18853221392968	
-29.994495519601248	15.53796302609604	-11.236182835159179	
-7.750365501724013	-6.512399387962763	-16.276876551690282	
-83.24147521037588	18.431495488995033	-61.548184000143344	
-80.28898961886482	12.11928858106039	-64.90319792974933	
-8.42127265123016	10.263273404020358	4.577382911081659	
-19.06221554527997	13.402055183755268	-1.6312745982923704	
-1.6929843782410183	-11.555377637945726	-15.593170943392176	
-1.673997587919796	-11.417898925487002	-15.406622783035026	
-21.87169102873267	12.742748067140232	-4.848621342050916	
-4.070150644304339	-8.825525536144237	-14.458776449874492	
-112.67079186687586	18.11040049168699	-81.8739930957853	
-109.48986066538296	21.121799437943995	-74.71978608187385	
-31.549013125087786	8.79024239562759	-17.38352455087969	
-22.10049917761405	10.547548083660924	-6.864516695181379	
-114.33687891998369	20.433992516773877	-75.09927854426036	
-83.29662679331396	7.937665336710675	-62.77221223156534	
-33.62659603388165	8.172581700158197	-19.227402550357073	
-84.49069826991133	6.197276470957378	-64.90638997991832	
-18.923178338033285	2.958227170042068	-12.512707150704976	
-120.04384192105101	85.29807982760694	-1.9386888971505793	
-31.080781986642446	32.30013262286398	11.4048156109378	
-1.729466108171967	-8.204592265070135	-10.716904842044887	
-34.44389906230957	8.059477353204743	-18.051844966825154	
-118.94964819804677	27.947536392761588	-60.67844626646188	
-32.45428926718102	26.998766255235996	5.04792990441631	
-31.04462214281897	25.819506143405476	4.835738505016064	
-71.07442489945659	52.79874614503407	4.4700272111469594	
-120.58161953410473	26.364679503781733	-60.707613795630344	
-116.74762859541922	28.461877201409475	-54.44643481244639	
-4.695690446972986	-8.586560633030333	-12.693501182622025	
-22.69972591236701	8.890687996208301	-6.826495402128162	
-22.607338155189318	12.214532788782366	-3.1353421310170866	
-18.954311501341778	1.3856615892424666	-12.161865361823002	
-131.71614792728025	-2.9480407815490977	-97.10182609457605	
-40.85484319983698	5.530135832383727	-21.718725582196114	
-24.196440169688017	4.888381778061988	-10.878424379289239	
-36.27093163595957	-4.886879456239177	-28.247895799252674	
-121.67025310350836	24.433993515948984	-52.092835632846786	
-32.52245909142731	19.46292083579649	-0.6807014981767142	
-42.52981054043288	7.982316254009313	-18.437676607422542	
-4.696962217719178	-10.476559221478762	-13.5483015203662	
-120.34928252399627	74.2955236472452	1.5057179589800647	
-137.86237873993133	112.72317834727629	29.48990495790159	
-106.9994176840623	-4.76454490932059	-67.76532185955608	
-117.87590114382313	75.76946671254947	5.9169936528012945	
-117.72717634821647	36.88577810853866	-32.388487608520286	
-38.86207411423145	-1.1448475775383653	-23.429060287779144	
-25.675752933548573	6.1819398669027406	-8.023625115694031	
-129.21561330611416	34.97406123157506	-35.546326191168674	
-116.20957763269541	-5.449971623716159	-62.94714047623585	
-39.76617454134248	-1.6844291653686134	-21.091944999086213	
-23.258891505116722	15.103762539627304	2.6911568799587067	
-41.24484564311498	1.015651812306187	-18.978814613809785	
-1.2441511620366228	-9.240153768707648	-9.123243033519334	
-2.5630001826707147	-14.29535627899171	-14.414774930131683	
-24.995335207411934	7.876975763461797	-4.693343792249839	
-26.89551693008639	2.539884049482935	-10.387965484306209	
-42.76148868804246	1.9449687553652155	-17.915822522683992	
-44.81165997573409	2.6519960511805887	-17.85101672397743	
-130.91136601339957	34.00511871936088	-27.98978178510292	
-47.75688358157249	-0.34394701789367166	-21.521786006287186	
-47.31583027715524	-2.674680656193379	-23.148257702362017	
-44.20660260526537	1.53202142212304	-17.879206148446947	
-43.278044675042196	0.31947424898977567	-18.421695398994018	
-113.66334278901765	-31.679837663621715	-77.26813279544913	
-45.902219424911124	1.3718557538065645	-18.423346939551795	
-44.4986640933936	0.9222066399069796	-18.115961807075063	
-45.32080751696133	-0.1436489148835183	-18.868194458403547	
-42.715948828429994	0.5300261657184219	-17.112724749881707	
-109.853480115822	10.93987897329711	-35.20673248139034	
-114.17048718361131	14.56367527919944	-33.61527684189352	
-49.418856635360235	9.741588099208588	-11.198011864178211	
-38.03722047435231	0.07607198046123664	-14.803262582716815	
-107.64042278134085	-10.197774274966534	-50.82967888485193	
-133.46906244808812	29.837083987245414	-26.334327177823106	
-48.25774903370964	-2.0856520526309144	-20.19882775402464	
-112.80844117837017	13.10405153983937	-31.24090431974263	
-41.127689096131355	9.83562559469358	-7.002374344905701	
-45.063697539302495	-1.6128941066467621	-17.912713926388083	
-114.62822393523956	11.75950965089833	-32.099294358397785	
-20.16532696823551	14.61369415493331	4.996209769211433	
-75.7987259882147	-5.238127724802006	-31.992293075711466	
-115.91384744341161	8.97056093860987	-34.29121368593061	
-45.641123620702636	3.57603903578944	-13.347889989954727	
-83.4868098714178	4.718804986168752	-25.468527542036618	
-178.73304971957597	31.386409941000903	-35.16079930345792	
-46.76486285203142	-1.406721278664196	-17.13651615097944	
-182.88012856257947	28.97238448639137	-38.07935613520385	
-43.26350974089629	-2.6357660371593816	-16.75212819473144	
-32.97996278220409	25.587642915044878	10.214737749830597	
-113.44485303597398	15.908699430485736	-23.59239984481415	
-107.72058375001625	12.488552547328636	-24.20724900053757	
-175.37058923948987	141.4860578303427	59.68727285448759	
-76.42741087683194	-10.607403264882311	-32.928788699188665	
-9.275573892119944	-24.50177441877401	-22.842398302748425	
-43.4831554413948	-5.1421677926247815	-17.66262856674028	
-170.30617637156587	133.25264995011116	55.35480934759888	
-113.72068852956022	6.156517727035662	-30.052569946800386	
-112.64047854901176	3.900042483922141	-31.246359615707018	
-106.35133611415257	10.017497292179028	-24.20021516793768	
-169.86704084818072	138.96770355641533	61.005303685665666	
-39.589751672912655	-1.113300083398945	-12.432830766349072	
-12.33080724219196	-25.699391536947488	-23.97090151561334	
-66.20201201180532	5.542688582004887	-14.42164539955875	
-172.49522048333102	23.917614615769725	-29.809723753773213	
-48.406803404261105	3.232611274653447	-10.911316654807031	
-45.89773781028283	-7.398817835316489	-17.854257803757864	
-112.21624526477272	11.657637473132256	-19.81797346374985	
-27.453279836928193	6.147567394545704	-2.1696179973124274	
-62.57385833242473	-3.5965583960458516	-18.532087606205476	
-47.1534623010917	-6.11736281821972	-16.413440878964085	
-137.8232628344657	61.48545461488506	13.4583888754193	
-68.14759180066196	5.605800737866764	-11.560429557785184	
-15.044970076001633	6.170301422360795	1.269012442088061	
-39.08100598359144	-3.4576314982828107	-11.255765952885396	
-37.414647827407634	-4.691464098645459	-11.265772856808741	
-21.744405697396747	15.687103393736988	7.200272311009572	
-178.54849268137542	19.821691886826777	-20.68056410341521	
-176.3168437712035	132.1335812293674	63.703115255246296	
-52.100644982195774	3.2957474171922874	-6.467640013025362	
-45.959142975023624	15.644661348072571	3.6440160072612966	
-1.0553969099293383	-2.982522002547392	-2.3000219513456095	
4.649126773838783	-50.249426732780876	-35.08644126459848	
-34.19683704481537	-2.196923260361478	-6.8260868032701145	
-168.53189240443345	135.98933635019185	70.65679668408688	
-25.655729552289802	4.863142676134796	-0.4515372080049912	
-116.82321421896324	83.65499018725087	42.005339162026395	
-23.29326816897693	-8.826273776790728	-9.579707975992696	
14.197830392719352	-39.24860999676288	-25.248845833887856	
-43.71342401022087	17.205689077957786	6.911749303930742	
-40.66451760135727	12.903724715061367	4.506060091958447	
-37.56741413824863	17.97132984146143	9.427975461232265	
4.384774590596706	-52.88941871678491	-33.970454656096074	
-118.42108593492168	29.45504148051597	12.805716910978088	
-33.30613329736296	-3.4780938722034707	-3.503643123326312	
-18.61959616129096	6.8024354351183804	3.676294114032312	
-86.53653852114735	17.08959035260349	9.622340153076916	
-81.18754828878465	19.361842244778423	11.449423559683906	
-11.474233272105826	6.431282859325521	3.931709260344647	
-40.266390315828545	2.1086722638563873	2.0056484665090415	
-19.587991027475915	-11.784861643552427	-5.666080457807582	
0.6185723259094756	-39.94105830576395	-22.164432937217924	
-96.28357695500965	-42.81232178406663	-12.880623128505611	
-12.374342925621441	-31.80333403043686	-15.703770465783768	
-91.25749405748844	-59.21741967803348	-20.71596417873206	
-20.65416160736342	11.460880003798614	8.601510065186766	
-44.01928103435865	4.454197371717364	7.784313716123736	
-40.22690170581266	7.754597672357961	9.489228869827603	
-43.093591064662895	3.473246786317774	8.950486694140615	
-36.576052517544724	27.82240099780687	21.01059233047668	
-25.18618702904654	-9.426165437944904	1.17334999960863	
-36.44857325031007	10.672247676153217	13.449753902181023	
-95.56417892462186	-92.42137673369771	-17.16718188160489	
-42.994539090609976	6.3275072957218494	13.742778319243177	
-90.1679989419819	-91.99427446554562	-17.80252783125176	
-92.07559707724134	-93.33046212862429	-17.556192073757636	
-91.19261530467703	-90.01413357225404	-15.188360423609875	
-41.95907419670349	1.173024420678116	11.760984058035804	
-42.31858057492372	5.68096394882282	13.899096666269923	
-42.071302799148704	3.4305206073555223	13.20500819644526	
-16.58262204072856	-3.0490386586181435	3.6034941426041196	
-23.11634053127868	8.1188553185362	10.255494292115982	
-35.708361986473726	9.77339502144655	15.018672875959666	
-18.30264792862991	3.7434258472225794	7.374356168049958	
-42.95707898268916	-16.31940835468195	8.602631744046361	
-42.136008766240295	-16.03080057899386	8.471728348704925	
-86.30802096631346	50.06233750527536	49.451188252779076	
-42.37445970719203	-16.277575404628518	8.653116686439144	
-79.22859544494636	21.24380561221713	36.06546949742655	
-42.9057858749214	-12.068078360471196	10.667679954152668	
-4.48553372887917	-26.03481963176874	-8.176786464778147	
-125.31302792874779	-22.16107400789316	37.35219269297554	
-125.30744761165374	-20.06591270226078	39.13830707762552	
-128.30230438126947	-10.828775781495448	45.651953097758536	
-13.466255837542205	0.29626897495870075	5.343333986811727	
-31.397107135656483	-5.964552673708633	10.122120832481752	
-32.18293302960734	4.103901614949909	14.376522281129525	
-33.82546004333841	-1.4631385336764564	13.266933634964989	
-37.59715566574335	-13.533602947965555	10.727094449340902	
-15.653707904583428	-19.268558673423254	0.15843114415137374	
-25.56399730369329	-9.072488498637687	7.969248918520207	
-30.77909224463858	27.17548974343949	22.26427055460961	
-16.321689904771507	-1.979713240534738	6.442457851762099	
-16.679293362353654	-2.08757599314907	6.5686874630290895	
-17.760820384340995	3.6671981072218767	8.9841345437969	
-117.36942351613294	-21.212184907237805	46.11994791326651	
-124.01522390823752	-36.27368347236228	44.354127682171224	
-2.385876024524149	-27.798599805681327	-7.635841774427412	
-23.113285316771073	8.528230877625692	13.444662175189777	
-121.86700303700923	-33.93640138349738	48.03867841101916	
-34.133108118687154	0.4369750877885654	16.812961962482387	
-34.55376101585113	-6.834802960163063	15.150958052094254	
-2.575507238344456	-29.180490774680543	-7.162348645081653	
-3.4276463286867997	-29.877314237988976	-6.857190683304306	
-3.321069717620194	-29.01072423606147	-6.655536085140688	
-24.009918697026635	31.9607115830151	21.245023145710157	
-24.56849368965504	7.097977012153381	14.911878921614822	
-34.72255461812206	-2.426835167505995	17.93073785445138	
-27.60015633474313	-9.218603635145588	12.437475383135807	
-30.314170718847453	-3.155538356994927	15.746378250859797	
-53.07424173481047	0.8453682723156424	29.93167500858749	
-12.93732544853317	-11.417747948677013	4.421511548198551	
-24.36085953693656	-14.826606472527827	10.110270654771059	
-51.84745751249849	4.769698671032808	30.515852703184343	
-49.612371081110716	5.127890578089714	29.347864330018083	
-26.94302542912176	-14.720679478315668	11.717772546150545	
-54.329400854267185	9.348909804251832	33.113752832958305	
-11.341020787278579	-49.41365232790549	-5.486354483794389	
-60.09169832213386	61.21011924902297	49.44966722184541	
-19.802921186305884	13.565868314577745	15.074213574825064	
-26.689424526280092	-13.254310886135864	13.905036511443898	
-1.2160839343594687	-26.28647336983437	-4.362680342359789	
-54.149373884914645	19.612002282981102	40.18365149107011	
-33.09418948093995	-5.839482893684599	21.783525545921655	
-26.58244060557471	-6.810565359789505	17.45169339222981	
-54.368380462852144	18.678304859172872	41.105277213987925	
-14.576711883036594	6.872959872237105	11.39182070477827	
-38.30550660576092	-28.048757515521288	24.36054829055528	
-13.918385286814246	-52.26017210815338	3.5849289972445884	
-25.10363746722693	-34.48877186308255	14.596197714831002	
-30.988355345853908	-7.896939194879698	22.379850219128475	
-26.91275031019144	-10.462055750817694	19.067064072332574	
-25.100832872322155	0.9426813167186215	19.314288390438378	
-9.106931621395495	-69.5819861219788	0.05644443184034668	
-71.8960070112874	-147.31894847241605	43.07515278297972	
-50.428957650513105	10.038895917609873	41.45804475335207	
-16.733498628052622	-14.486754008977334	12.224049940480334	
-83.03971594373218	-137.0478435080869	56.1008060120892	
-49.9146136909475	6.831279486586706	41.77219663963212	
-18.004785367327745	-53.12066407587869	11.09341489329555	
-9.50015877216248	-12.702102172038131	7.116934393745598	
-22.451217413373428	12.145803710074425	19.672160632807913	
-23.26869845638982	-49.854663044797825	16.384338996312344	
-11.985342393933594	-12.719792510295912	9.293355772888177	
-16.180546686300826	-52.77736146349249	11.57057332746282	
-22.77335392577667	-2.0272210702085367	20.224792069582822	
-7.524124419408213	-36.65081562327144	6.089684163722375	
11.440833206899697	-57.4359150580818	-11.412237891238588	
-21.80404541017936	-7.517714652540612	20.067282755320125	
-45.24619186419453	14.643996589506509	42.24900844024751	
-21.747963475771954	18.444076046955143	20.40255079816888	
-17.95835453221448	2.132871987651392	16.8737806885895	
-47.58787897002723	5.749971771540477	45.632235850712185	
-10.251949599944249	-10.864379222652007	9.970764067421968	
-17.53784519837006	-0.6259694022736029	17.717754595733357	
-12.12962646469926	11.574878991373906	11.87663917872784	
-12.860383181860492	14.475325959583504	12.479601867873106	
-8.09380591751833	-12.104339969730546	9.404453259437204	
-108.38469763775974	17.320570264546173	113.96844773199099	
-19.717727089770978	15.10321574380242	20.063199165849568	
-18.09957469605087	17.879037064948676	18.096393189542983	
-73.4126653696739	22.389445813494014	78.64559448020805	
30.64889377192741	-161.32864577006316	-16.25297454048033	
-31.317910027241354	-48.72560759588859	44.85579126499052	
-20.332109816931197	16.015835660007163	21.730483994593666	
3.123724929143771	-32.17162122149431	1.7989247888936117	
-4.199354723317177	-10.96459016587023	7.085733568192933	
-17.37161671885227	-0.02272121455254007	22.14453326164854	
11.389779898519906	-57.980840835265894	-1.2249961119245993	
-16.844119097828308	1.714567919642294	21.76958961178211	
4.629377055603695	-40.41985541959102	3.855399600357709	
44.86117504085688	-163.255473348467	-18.89150116085349	
47.2039246886332	-162.1739964978669	-22.20693077146506	
-22.52261229778864	16.854989122100836	25.839107913790503	
-16.03790816521857	-7.201763942808906	23.43916903784525	
-16.270717620706975	-2.7145195492942507	22.92219851445992	
61.4781107230879	-147.0820795077792	-43.67885076544361	
-21.27015638730887	16.72511405970331	24.55109257421669	
-86.31193345646072	-66.99468638921071	141.24346795749395	
-13.656023147217304	4.681847672817874	18.02659031068105	
-11.32874811702496	-7.59415786833943	18.62419077449843	
-3.047727062604164	-10.633336355147405	7.985179527845822	
63.49970290422314	-145.39119659819798	-42.332186739276686	
-16.09259628526317	-1.731101665147926	25.018300450130116	
-4.6465677861202135	-65.9241795076221	32.2333113179437	
-16.437541887592225	18.08527754095618	18.320649160588427	
-12.723842705573686	3.3856601372338497	18.747977587956118	
-27.84893202684919	-50.437482093126484	66.14508802452728	
-13.115079986014829	7.736413279640653	17.82942505543974	
-14.590948980609461	7.67311544714588	20.780127187607096	
-13.761247534183111	3.9636284199627445	22.452980130210843	
-12.39405912162387	-27.417827647785312	37.8841138319257	
-11.393054448441273	-28.884390677739667	37.10048976462213	
1.0082151135781603	-43.26252216803353	23.790551115077626	
-13.186501034733764	5.530842245071538	21.618995680594757	
-12.676308729285543	-2.2372036474528882	26.083346630468814	
-11.714376785381514	13.175068954783006	14.285666688963211	
-10.893157952057361	-4.420464356338981	24.96432356099075	
68.23721559987285	-140.33443293155062	-39.75905090557653	
-13.283420832406696	4.481541072488493	23.838166951068306	
-21.140183415998976	1.9619266058587186	41.8488175447772	
-12.100497134450421	7.222952581888666	19.98007625407821	
-40.35106503422404	22.59030139953329	68.08454271458521	
-38.46471495122709	30.356098759665517	65.0410875210946	
-0.6920415135175433	-29.72405893309145	31.310251292432028	
-84.22946975779996	50.105707343918965	159.9845338196008	
-10.538419397566301	4.131082380722784	22.760114462114075	
14.923118675860051	-38.711569368720205	3.0088927498778433	
-7.362622398003287	-8.262665305326655	29.027374064607102	
-9.29174990747381	-26.01192866485533	56.945686905617336	
50.22943751830312	-105.51360825615193	-12.337068122773816	
-8.020439622882678	1.3527882149702823	22.731550630449227	
-8.194957973365945	-49.631765982244886	96.62200432173883	
-2.6681340027233396	-15.804211430738508	31.171592895598245	
-3.904966350809321	-13.763746790599711	33.316130325135816	
9.563088310754145	-35.73412836496405	22.414423919893203	
-1.7514297659934075	-13.900832637488215	26.869555100628435	
15.98615674186272	-29.479724603725014	-7.716492001070699	
-6.531193994897912	-1.6578549595018586	25.028983631996365	
-2.647473626549491	-15.29871392972579	34.03724826198069	
-20.112656088231713	11.463146872815827	51.32716102326679	
-9.132066232516108	6.224387339652341	21.890231648831524	
-53.087478446420036	51.290747287282166	101.84860238854303	
-3.3974635227969343	-49.7283646115727	99.99775929205438	
7.04098081360409	-28.85179374771614	25.093272725648617	
-7.685203644490183	-17.94437723049583	59.87024765771342	
7.862220021067689	-59.46095442447239	78.03909129602863	
36.49554262047049	-91.13726451295867	33.509825329466544	
-5.8644149435684785	-2.404479559851374	28.42242210950156	
-1.2556127114448299	-45.7399744276206	97.56125516318684	
15.508220321266428	-87.38025461883217	114.31285109657654	
-4.8275771624446175	-40.76207705171252	103.78488285827366	
20.460051959506366	-91.6708000593163	105.4865782157896	
27.347141420145757	-96.12738838651961	101.79213130643038	
22.88370436418004	-88.73412146730838	105.9163876603516	
16.457695168592373	-63.5390408214628	81.44703650724871	
-16.851488610138656	13.367125161896015	48.990651568180574	
-0.7919313465448549	-36.42886437731033	102.40632542198836	
2.855647777571457	-18.544766631142053	35.89383441140402	
2.7552965564720315	-40.19573488250862	95.59050813663407	
41.82838684190596	-89.87528658558475	31.992395343383187	
-5.95534812984105	2.9468409466058336	23.61069350685297	
-9.944296286899624	9.618177985358985	26.785945507788444	
-10.150199767796408	11.12662668652877	23.617772963877346	
30.93232322440712	-88.48441128988823	98.35770987058235	
0.4276410859364546	-10.994515602265118	32.65516809482258	
-7.20322833973356	6.361157193324432	22.95111585494491	
-8.495957458601875	9.249938770707624	21.25134216809904	
-19.801236613572343	23.91898388781324	43.15229134518545	
-3.161121325168475	-1.6124061663591394	31.506560240121722	
-6.833894646352798	8.723940154389673	14.607159051752307	
-3.397112587719692	-1.518867546773597	34.11473768602022	
-3.6507945111884514	0.5417881134888183	28.431167466383325	
-3.1127306898343647	0.45114193301176575	29.81055358035948	
-6.179019148873301	7.379243782830354	19.534696422200327	
13.578921690831118	-23.359909117411565	2.673313351666121	
39.73946365990587	-65.30870843919173	-9.537092872243782	
22.92189385867724	-64.54428396933707	191.80317194258495	
1.8618245310524	-5.247012792940275	17.416637002370923	
15.87753513956015	-33.81079879692137	63.71287772410771	
12.6766367452692	-23.85348417780054	24.541755507096106	
-17.492896107333866	25.47512548935786	34.674536852079946	
23.703957256263667	-39.22082580759331	12.430635025964914	
-6.552780995581366	9.092327470587064	20.513419792063893	
15.111880685261141	-28.203805298035512	69.95238517862379	
9.93536213119587	-18.174174406174807	47.28905991522444	
-3.0096588335715024	1.8006565112961421	67.84419118778386	
19.421284831305325	-30.466212786389534	-2.1269319357773653	
-1.4635687904341812	1.461101758268575	28.277184814588637	
17.720676414631406	-29.343079110418397	65.85133136125721	
-7.277383660947305	10.969532348505474	20.12050177826415	
12.189881538915975	-17.919163866322645	122.63269854964639	
3.569887741241773	-5.080665998955512	34.22386012998603	
-6.617091074131951	10.576187745931382	20.731149537996874	
-2.957518409423744	5.784427669666809	24.330135582949	
15.991717473366966	-15.393534217822495	122.69666283875397	
57.84282943322524	-85.33401497209513	0.659532214329063	
46.09092084177098	-57.08171139069127	133.62245843314216	
55.992862596381144	-75.04863228031816	89.5068492535765	
-3.8713233443225756	7.63823321155586	20.662147832249957	
40.962138308177835	-45.76288154832465	133.61945769786072	
-14.276022524590621	24.976817208620897	39.66007641623777	
19.241477151759717	-22.656788186349257	39.46515528433002	
2.755880339777345	-1.7262147682741322	17.52618189995807	
47.401218593471505	-48.85162145525424	140.64389804412588	
60.31276779061012	-67.34719001055691	131.39128254585657	
-5.678960201910679	11.235336669418079	21.94235867315446	
-11.576500294416622	23.106649218864398	44.44608688303678	
4.48107031296328	-3.4022834834614653	16.633465540222225	
44.48882924783768	-37.374110133119984	143.48023055416039	
61.24603004300814	-61.53101685735506	136.55064066722892	
57.82073024985502	-53.603537550259375	141.3033743886935	
18.47442490851464	-27.198291896126346	-11.010869296221307	
-2.773653561140314	13.94007155772458	46.416279727296946	
-4.400213501185928	10.023867559805742	18.613009411522796	
-5.611420509527953	11.295853964352435	17.000620256447238	
74.47863188598143	-92.65387520705399	27.20832119076328	
32.66768770322714	-25.34286976759969	75.13922818024838	
60.67520226500154	-47.13969556296456	133.55898687110772	
19.625046870489538	-27.771237780939913	-9.039073655897075	
24.93289674491657	-28.703266926661907	12.936395916251238	
24.628435169102247	-11.98967202926019	72.00761387643838	
68.91412056690714	-49.21312422565072	135.7531303154386	
9.522090080730047	35.28632463073496	164.33497582097021	
20.53293599953565	-5.279727379770905	70.12532603921048	
21.14635061428997	-27.586792507266463	-3.1766217103241514	
32.90335941209717	-14.562234639635214	78.8315851062764	
38.0350713112994	-42.21072210794877	13.24766432752484	
3.0397690889037126	14.913154903053895	54.90978517690818	
34.54583503412554	-15.696306576001811	76.50408702859396	
9.637386262485673	17.8790965348088	83.39924333811916	
9.047241678840816	18.882861950992506	83.32001696981605	
7.677873448236818	19.783224872513756	80.80205185107992	
-24.937323353468372	56.97696279491336	74.30488128430329	
21.682052773119032	-29.731640789045734	-10.352203236260035	
11.372693264620573	-12.334760627344195	3.1972006179523116	
5.31562703090895	4.355575942117978	28.228402097749953	
73.62738441466801	-96.2922137852109	-23.417874715379227	
11.857056955495054	17.028037133046983	81.4315930117848	
-9.295438136311413	16.659272661548137	14.806278970927822	
8.385634151512882	1.790738749447318	30.33733159599792	
0.08373268293016896	17.061063327989636	43.060958156378035	
11.033993737981268	1.3676851322194128	33.54089056540398	
6.7276706943490145	-0.890647351103368	15.568914937465651	
-18.586254431948024	65.88732291811074	98.26486740043327	
9.453602615146966	4.859159828227302	31.55804463432351	
19.256898986715623	-10.784749693060755	20.57650482965376	
-1.2877361973438426	14.051170597882004	25.415698287458433	
13.92640766029812	21.821287079926556	73.51797239313257	
8.162169606606462	15.88251233486356	48.95535017900213	
31.306494358076094	-28.82633288706992	9.268088601001786	
13.262084429271976	26.97783691593552	76.76395698287092	
9.368442974775851	-2.134522348468176	14.255044502694705	
-18.992918650555417	70.58621150899008	95.04653283776199	
20.596591797580377	-27.760568826945995	-12.079253868686447	
0.8988735681369531	-0.9325128757153675	-0.04369681946399359	
14.96184847366296	29.13521459815214	77.31155913763905	
4.15507408004224	9.914614965088665	24.341784815705594	
-2.5408126123419184	16.632311653920866	23.987184655653582	
8.281760703828294	0.3949182037639081	14.267478313473985	
-2.0236250655429857	76.41097157619306	122.88413276330384	
0.8985795247626022	-0.8757451240838754	-0.015046733210664196	
0.9487843120679363	-0.9245270545011581	-0.015823182370608663	
22.379190500367372	55.68193183392602	122.72546115578481	
-0.13689088487205828	25.251675464896202	39.683551040263914	
22.831536896322156	-24.91934622501342	-5.3074304333889755	
-8.927388601465834	31.75346498413587	36.39219914623693	
7.8953564866242285	2.431113951203793	15.133347000203548	
28.226314594406965	54.62749287076418	120.13060135384096	
15.258229701687561	12.971492164039432	39.610333070474354	
33.12571534104978	-21.90848060065458	11.225569213712188	
1.2702737275195086	13.551199287405087	21.097344919599177	
29.186995579745293	-19.602172251692007	8.252505091354148	
59.00605635618943	20.144132697279566	96.71974208191193	
27.87671322230476	-12.728650643763412	14.970559528500706	
7.566438256519215	12.863651735118227	25.831754108582114	
58.52857836137829	22.157226806027065	93.92753180049597	
6.605387471449064	14.347091209903633	25.572633847883328	
41.04653596162384	61.21073453183694	121.43038755043524	
40.209735906734814	-6.218829001057384	33.735168330121354	
15.22226477976846	17.93144122070233	36.63394977137272	
31.352630638443827	-8.203287480899963	18.913701075638446	
15.109044537124392	29.151086867083745	47.53222575084603	
-0.8123427010285925	29.189806805560494	33.58395395746195	
116.29667470839833	-47.08725260159673	43.52330932531465	
5.150080403066984	-2.660576868202393	1.2458283758199524	
21.055527226344193	-22.29521111638869	-8.131440493458454	
-0.9859111880794769	13.01379243310083	13.95358562797612	
53.68767709457611	31.700405679092043	74.17666328443401	
66.18540629789825	-2.4427755891090928	45.67068512794877	
10.743105754432245	1.836151301862126	9.80227606415738	
128.1380717679922	-39.72352811639425	48.50417317446746	
41.238214674802386	3.3129881122831257	31.506350045390462	
57.67466095388014	30.527000712220303	68.74779900848026	
40.52487338098855	-18.6677781900016	6.618145474504128	
53.520046975848295	35.72898315645362	69.35128381382641	
95.97577861446055	5.493403240153145	64.93555003672407	
27.64242994435941	-19.952287030494247	-3.134858431257941	
-0.5413773271808021	22.257212346498736	22.096414496396452	
32.011276045943575	87.7227982781948	107.8423284518901	
12.234161102945805	12.232880182470849	19.71926813877427	
74.877098516227	3.9871454880371795	48.61806513406021	
-1.7945714153669663	24.380946319748404	23.168598101604204	
87.0363921391141	-24.33019257150413	26.12486319765169	
167.3133175523869	-59.886889808481605	36.84809525182773	
8.996878153932185	26.971669224556432	31.514252879678782	
11.301187382632026	10.088148678674294	16.251774514598065	
50.50457291730973	40.36876613456479	66.63983919805653	
100.21994616367463	-17.091130154294518	37.780934722133345	
21.609062955046454	99.78214305054415	106.44551124686554	
101.76099557809925	-17.41431799904321	36.57934754777637	
19.287489874689815	-24.936275068323944	-13.588461110804824	
102.4339560259069	-14.050207448103228	40.01084865284744	
102.24930420989924	-15.341044018034886	38.63202939867059	
-0.5452802095914733	30.46410992099554	28.522856171368762	
7.199948830620623	26.00011333416529	28.24949114049676	
38.02975104210915	-21.523297507519246	-0.8519446101847964	
114.61431297758047	-5.086557646941392	51.95887342269666	
43.870093458134775	6.825441021715251	27.955296821089203	
-7.705846981624491	30.457444617378428	24.473993860427456	
139.4453141136416	-23.61841638553345	46.27579448917796	
38.55942259454855	-22.09492933378473	-2.3604474865715104	
34.02600614203513	73.03927990759749	81.23191780683653	
141.90375118592962	-17.93072771674751	47.14764248452444	
135.8489153826767	-14.127863232781769	47.84054128497207	
71.7241127080295	-10.213018217063912	22.538574763501153	
-1.4230558850000024	28.41756926796269	24.74396852512459	
15.557042300125044	-2.101264308921719	4.8797840217750705	
68.03049732246737	-31.60292524433898	0.959221089037772	
108.51310582095577	-3.2402218658915194	43.14958813961942	
67.20500318673467	-34.28946691725721	-1.9228159798694808	
73.36859208736514	-31.403581512625724	3.230140964324338	
112.0026537707876	-14.035257218478337	34.604439203712964	
140.15676283764904	-28.91309752681201	32.9081369415225	
136.19904845986963	-25.3198057963519	30.470295718541898	
-9.289680348099356	21.87714167510957	15.222497009281712	
135.89366664539364	-24.392514161022497	30.723906704811814	
3.455799086772136	28.53891280567666	25.32911387891253	
145.1955072534143	-36.983329831715366	20.926794487912023	
140.18813910620014	-20.86417062428175	32.221988085743604	
18.24821270894777	22.987541474476348	25.68457430422814	
145.33636567838047	-29.837979732059882	25.848047621593157	
56.158766966872605	49.3745689774278	60.88906659471992	
68.53003589537794	-30.455133527537896	-1.98307262530156	
28.27536718574088	-13.716031407459658	-1.936876067795335	
74.18028970409055	-6.015048887763522	18.97627080062808	
146.64427080577465	-32.21747239297672	20.355182414061986	
144.00367714652288	-25.67726604711732	24.832807176630936	
86.55403497670123	10.00397745433044	35.46998405132655	
1.0500434837661032	29.484723930806027	24.28336731933717	
45.10536556946149	-4.896723276685387	9.941581203388255	
33.003598946147655	77.87878215971551	73.19567375966716	
23.59369756233717	19.764267995634178	23.04048236422446	
15.14681614722372	25.845880724280757	25.330640391468762	
144.99493275856332	-20.66025005914717	25.0627045442272	
36.10895358560845	80.9924977299995	74.17090083007103	
35.42908499380025	80.68597397207952	72.97728081159107	
36.814870313314586	84.82555810565755	76.33005721480764	
43.00864061857984	-40.34471459306566	-20.232463650120607	
83.85487584548777	17.116211613737608	34.66051198499979	
110.72083044288381	28.51824876945219	50.13599319320852	
106.961406316135	10.491558332377133	34.88420786536683	
25.655414649010364	20.12775314614986	21.950078834324362	
109.22301657000007	17.12614550387127	38.99580840991057	
39.75814389370297	80.24839656104038	69.94789477893868	
100.94205793790566	-36.69797239205919	-5.098044143740255	
96.44660024248971	-18.987539795657035	6.644104201856548	
45.45269892817362	-3.6816075799970305	7.072492669029693	
110.80291354062612	30.89429710830258	46.90160094615731	
66.05478898596358	-34.280950301203326	-11.849133572565405	
112.27378485336294	27.79580410741689	43.60358782702253	
40.34091578268067	-11.980750662403452	-0.65827528482496	
23.682176188002956	37.50849802685281	32.47378086018736	
-17.187837549604954	84.06802893482237	58.675112804490446	
17.682023454951263	6.705961191672735	8.332826256711542	
22.52545092177255	37.948744649398385	31.56857550875591	
46.39885515590338	-8.795870364808357	1.7860628053824297	
72.63276278514546	-24.949938085971272	-5.31563357905899	
-1.612001682039947	29.91019202978516	21.037529726723776	
-8.192322445373028	45.65037706294454	31.199683022801022	
67.12587535066888	106.82133463879612	85.97664985683699	
25.690575918568005	-23.76185872301456	-12.988466226155479	
5.926912191165355	-0.16128108682972808	0.7018822015596394	
24.69386885936065	-17.355844059057493	-8.824536877566574	
6.764447323332067	-0.96986254497331	0.17006642696857405	
70.68575741772615	-30.4330624286287	-12.343341299678265	
127.33090721593831	-0.1700422749095073	11.806740183534611	
78.64678571043045	98.18850016883873	73.22249506610719	
52.918885176600945	-37.124143704383634	-19.978229245165632	
38.333180934549134	-8.561971574988448	-2.6949920583202065	
84.1011852175718	96.87638514871344	67.87459865734961	
31.604308447549226	-16.611304730296936	-9.047588351341078	
-0.15793413808735335	11.877418286405447	7.593883605406094	
99.02614736601389	33.13935932195877	25.6444008332027	
128.99603210116143	43.212279553828786	33.29282221347413	
27.133896544452828	18.41329623432448	12.793079588125405	
4.894610922949005	-1.2214056488445757	-0.5868139765686563	
51.36636549255933	0.8435635430162026	2.042579995601828	
22.388098846396492	42.58471813495842	27.34718243177412	
128.29901913691987	46.82465373071119	32.75451393060373	
75.19664144917664	101.86574920750269	65.7176779179692	
12.801303863352882	29.2800508450997	18.396600244108832	
74.01521663889737	102.79961900750713	63.37777480726368	
5.130707740333361	-2.3589131904435696	-1.455588176021009	
20.102126044398194	40.99916118581764	24.486917725680545	
97.45261394227597	8.86927638831075	4.146446313685889	
26.087267615937286	19.35683388328526	11.282499925642691	
49.52840602945273	-0.8726556858846617	-1.3325762160319485	
26.55138649739068	-17.930952875859692	-11.247446590557074	
74.54480070679851	107.15440035245399	61.99808890775943	
12.030467997497235	27.102274106143827	15.806299338886532	
75.32649435148804	110.75853872290243	62.26438347728525	
28.56859812373886	-17.88794584098913	-11.728025918082954	
51.25616600857513	1.7834520407177334	-1.4740711209304491	
89.17779436707539	18.85043760308422	5.664950700406627	
-8.111564974089047	53.117028663237775	30.693081022531654	
102.87628368686329	6.907307420511867	-4.339234631060178	
106.13398836974172	1.3375455517864008	-8.67430509085604	
17.368110619436035	-1.2020618861742005	-2.2394272497736583	
44.98934662807385	-36.48031370823135	-24.305407544078566	
21.733136786936992	26.564171277830958	12.25229186811279	
26.142102350173765	13.79422774065299	4.766606447344532	
5.064509508661319	23.39638020610801	12.055385148874498	
40.916966317449656	-6.610867781636699	-8.544198418661537	
52.771413815606145	3.684148820304868	-4.683081119036349	
44.02063711556268	-2.7436988785940852	-7.521133571289626	
66.81492164493989	30.459181800635942	5.524103514336829	
66.67936242318727	42.4177911131815	11.582861100240116	
22.778590704153814	13.753638458434768	3.3914676291978165	
46.18700752305622	-36.858998847386474	-26.101106686781456	
41.05912513488166	-35.35857541445128	-24.5517635632908	
22.687893059513915	26.81630596382185	9.807469515218154	
53.921637033889326	-11.909458444753396	-14.946717118882509	
23.25834461590012	41.90321905096991	17.11786508710357	
22.466399456482755	17.52089445668991	4.8069489363751625	
44.581228648650594	13.255604390638453	-1.4657220980296728	
12.832221792673879	3.1608344240208015	-0.9798707255722463	
24.926013659589625	27.610586742665866	7.9488205831725685	
8.393027552027545	24.960790967778397	9.75267631113792	
42.014070383048384	-37.9474231667319	-27.11948141441707	
58.66265869956558	49.82146320357789	9.261130066044826	
66.31057906171849	32.3431713452624	-1.8371995712313014	
7.350857694748951	24.047649299429313	8.940118008351044	
11.942131645808647	14.637719382574367	3.47752592605863	
68.08066181104137	39.25985804879595	-2.0537445778933634	
23.079182891099144	16.56716844202138	0.6445578502368462	
40.30903190318877	-35.27928463997024	-26.60120569336446	
68.42893630417855	46.82846982880402	-0.3040928386407166	
41.36315880566578	31.41811518383098	0.7689168422566312	
21.076187101457446	16.06634200571627	0.36706940058682647	
106.44985044052372	27.747795654205973	-20.93981997764738	
8.48189842306603	6.853870697028307	0.2355993168683234	
113.70388949983325	15.485368329235069	-28.9264713739624	
53.139716481918626	230.88496078503084	77.82655971091481	
107.70221840424873	98.39224332933175	5.562017873023368	
40.71757967351802	-33.21657815490054	-26.437572764284614	
114.28048466868464	20.046128868270124	-32.46565025081325	
36.20564082285293	-0.2897650336787376	-12.887371425151008	
67.47281724433726	49.23448518362085	-5.105186221061599	
37.63796383106528	-37.27213398142903	-27.848239851872577	
5.362951292113563	25.861820177469912	7.365479155860903	
39.044397935215905	-0.23587879735780648	-15.280608965510897	
23.73575743773898	28.970841336309423	1.0471197827752956	
8.751439711692544	23.339789284740064	4.813951850089417	
37.28727597207592	-4.391515383964292	-16.807422455269716	
6.322950835015374	14.252439776893285	2.29777346007267	
18.81271226660565	28.29354994689958	1.8082227541136031	
84.86345617105833	13.889107829654817	-30.74729521179506	
83.54445781710301	8.894674176476032	-32.2928565223492	
3.675384977025064	23.880644785153	6.467752235413716	
44.0484417759333	238.56386319491867	60.390545242018995	
70.83158004273572	140.0389304088304	15.82182454937502	
37.321460189274866	-3.9275906416380946	-17.985038195790633	
83.80697684148782	9.379557925308006	-34.614177880012775	
40.94017325830437	-34.86720954833209	-29.60721479955513	
97.73947385019869	59.22850145716104	-26.737729146458197	
40.04006512265614	-6.72999734843747	-20.710673981952947	
2.27217733580307	17.656740132472187	4.388061242396267	
38.21529765967654	244.26250879633926	57.388719984410095	
63.55249199013048	42.338407208546826	-17.063819766215232	
39.68986307727881	-6.773428649657209	-21.09386488328306	
76.56531940448744	8.486314812932074	-34.6285231791468	
26.69066732838339	-9.078821772049372	-15.676925691080905	
2.3799101679508685	20.38261788377691	4.818717054730181	
2.396304904262639	20.513082365456984	4.8455965411216715	
93.91835760931164	54.97010970101462	-29.942404016691423	
19.24789701485873	67.01183239226445	9.912933244942023	
39.68431575738728	-0.4974251062063867	-20.093099329956605	
34.07202225796377	-2.390341493730307	-18.16290429304717	
40.749570151356345	51.12309543911431	-6.961827051247902	
19.678501785820824	70.13132142292326	8.322565675390104	
36.41621702728616	-3.1286817001558096	-20.149023207063024	
34.77796233505912	110.57830347102045	10.735590550216047	
12.270353012353434	3.792212805789614	-5.694635465805692	
75.5550240632749	13.916321215251557	-38.45015771018267	
96.86825100392512	53.061617843970225	-42.49845320775866	
0.3811653422643483	15.48104838291777	3.284848014228501	
17.098778164536803	73.05403552334585	6.403992994094151	
1.5261046367178017	35.836587822390534	7.090004275577556	
194.04793609778082	42.67379148174064	-107.14485370865043	
4.455464971232857	-2.596169395471503	-3.2742673890908565	
-5.350350005592727	14.72918071713176	6.396975554975679	
10.817474318894956	69.03420579394873	6.983684743063429	
5.178413942008787	-0.47064448772783707	-3.3732558021303456	
90.26624352995628	59.83663334554424	-45.24940753364057	
4.3783792165671755	24.177491438748707	1.8816046688490036	
-3.0515587875395793	16.529125829233603	5.111632371047309	
55.55834281716422	22.53392762632513	-33.311915391332576	
12.081356296925797	3.408717789907394	-7.917238522758174	
16.923219542358872	20.969996225669703	-9.692009153333608	
11.473314734680141	70.50061190883638	0.2599727007641504	
36.742696210003885	-16.421120983824792	-29.62807679557915	
15.502646584420994	22.310643097459735	-9.105738586322325	
11.140893976320973	4.335140930700507	-7.996064165491683	
56.07588018241943	-61.47009527079026	-50.02881310309541	
11.228418483662812	4.087734286786417	-8.523584919444229	
16.034917295869743	24.73051076798512	-10.5602177693691	
14.95124870535004	24.743580030202402	-10.08501650682804	
37.642589369059095	88.8404411645707	-24.313710336771646	
54.205391682777204	-9.722170599513616	-45.8904678703461	
-15.005687725688109	385.4012869017582	38.36709109422154	
6.745402870911406	42.58908432090396	-3.1367413064666603	
9.779850816551086	29.30127556601498	-6.779778687481928	
17.454231513934058	22.488185523462853	-14.005831075756484	
19.933341189551705	40.96656613483496	-15.42779943375126	
37.53914827686643	-0.44160506257837867	-32.91100382743299	
0.9772884361866893	19.445188507819125	-0.1619304336598139	
13.496764802988322	40.905292063420276	-10.707291422400552	
23.12098273688196	-9.86237734487319	-21.13449134567748	
13.004135136638013	42.28408620580034	-10.710305010527748	
56.72513172665103	-53.635666792676375	-52.96639574712897	
3.997908248675514	49.1763712107366	-3.0295422224665494	
14.440951843662775	42.24810563851169	-12.879006815828491	
36.75330954342196	-8.780428703359172	-34.785882874491016	
54.998823312695514	118.3020704083342	-52.54827737029462	
21.004054996090982	6.183343699682608	-20.10625999587045	
18.637574712502303	168.21524878400973	-19.443104324118398	
41.64074307297954	-33.99803972614507	-40.030184077404634	
-2.8322714825053694	14.572640472206306	2.397002455939318	
5.096296866570963	47.62204775898239	-7.621616958613679	
63.34172972778706	73.34689388509476	-69.14039364515978	
31.57232640431675	8.413602014119965	-33.07143841491271	
14.399214968164834	40.50839991778847	-17.350658880906963	
5.399067837393554	172.44474503002792	-16.43454205915158	
7.1538374228291355	42.90549821531626	-10.39530857728394	
7.850973702594263	173.32075478876828	-21.49697476450515	
38.909955318815754	-36.785687178221465	-38.820178393648966	
8.396757944920305	174.3968059243137	-27.028162131181183	
12.991504833524505	-11.8321796722394	-13.272918393840017	
29.885054455798493	65.75404687645313	-43.090838021046316	
-8.525184090206297	34.76149901672016	5.100960351050359	
4.157762298603527	82.4725990020632	-16.32262915083533	
-2.441232888657886	47.47783653412752	-4.0164954946274545	
-95.03431793390538	226.80791332459856	77.1518725367898	
6.529464389740849	5.028584415317096	-8.537920402735725	
51.04816346294961	-62.35587481311043	-50.925692261916765	
10.35848868912956	79.39376696462814	-26.205337459150638	
24.608761018733396	-2.527543860051772	-29.72155380790962	
-47.752390051731844	183.00365773796167	22.595345476363754	
-5.9921471589825295	47.48986877765475	-2.6305134918022253	
-100.32942471957662	225.75678616427174	77.99856258266873	
20.508068902247075	61.95075356322948	-41.285149493775435	
17.46593836948418	4.582495116066797	-24.130462486662815	
35.0786952855649	-35.644351827469215	-37.61647625674535	
2.2161786141178386	-0.9771103511948025	-2.693621389555248	
24.88585408406206	57.22067678306331	-47.31506279790873	
-13.06052819851164	67.76493370643009	0.3821762498801472	
5.877623429079099	27.73769452233619	-14.879039780083344	
-1.7299581429861899	80.92967623946407	-18.59498194921677	
-1.523039754921044	49.379644044566966	-11.77586314690093	
3.5818989577514087	5.288141347103528	-6.476142419985264	
34.11955005582623	3.043752105051153	-48.46317953678186	
15.877627155031936	143.6343883066436	-65.66830850725106	
15.771684216576828	4.107443074168528	-23.92901388247709	
5.19449484069786	42.60400400651862	-21.096250231874766	
